# .PCD v0.7 - Point Cloud Data file format
VERSION 0.7
FIELDS x y z
SIZE 4 4 4
TYPE F F F
COUNT 1 1 1
WIDTH 1353
HEIGHT 1
VIEWPOINT 0 0 0 1 0 0 0
POINTS 1353
DATA ascii
0.017690418 -0.05012285 0.85503685
0.019211823 -0.050246306 0.85714287
0.020689655 -0.050246306 0.85714287
0.022167487 -0.050246306 0.85714287
0.023703704 -0.050370369 0.85925925
0.025185185 -0.050370369 0.85925925
0.026666667 -0.050370369 0.85925925
0.028217822 -0.050495051 0.86138612
0.029629629 -0.050370369 0.85925925
0.031111112 -0.050370369 0.85925925
0.032754343 -0.050620347 0.8635236
0.034074076 -0.050370369 0.85925925
0.035555556 -0.050370369 0.85925925
0.037128713 -0.050495051 0.86138612
0.03861386 -0.050495051 0.86138612
0.04009901 -0.050495051 0.86138612
0.04158416 -0.050495051 0.86138612
0.042962965 -0.050370369 0.85925925
0.044444446 -0.050370369 0.85925925
0.045812808 -0.050246306 0.85714287
0.047290642 -0.050246306 0.85714287
0.048768472 -0.050246306 0.85714287
0.05012285 -0.05012285 0.85503685
0.05172414 -0.050246306 0.85714287
0.05320197 -0.050246306 0.85714287
0.054545455 -0.05012285 0.85503685
0.056019656 -0.05012285 0.85503685
0.057493858 -0.05012285 0.85503685
0.05882353 -0.050000001 0.85294116
0.060294118 -0.050000001 0.85294116
0.061764706 -0.050000001 0.85294116
0.063235298 -0.050000001 0.85294116
0.064705886 -0.050000001 0.85294116
0.066176474 -0.050000001 0.85294116
0.067647062 -0.050000001 0.85294116
0.06911765 -0.050000001 0.85294116
0.070588239 -0.050000001 0.85294116
0.072058827 -0.050000001 0.85294116
0.073349632 -0.049877752 0.85085577
0.074816629 -0.049877752 0.85085577
0.076283619 -0.049877752 0.85085577
0.077750608 -0.049877752 0.85085577
0.079217605 -0.049877752 0.85085577
0.080684595 -0.049877752 0.85085577
0.082151592 -0.049877752 0.85085577
0.083618581 -0.049877752 0.85085577
0.085085578 -0.049877752 0.85085577
0.086552568 -0.049877752 0.85085577
0.088019557 -0.049877752 0.85085577
0.089486554 -0.049877752 0.85085577
0.091176473 -0.050000001 0.85294116
0.092420541 -0.049877752 0.85085577
0.09388753 -0.049877752 0.85085577
0.095588237 -0.050000001 0.85294116
0.096821517 -0.049877752 0.85085577
0.098529413 -0.050000001 0.85294116
0.1 -0.050000001 0.85294116
0.10147059 -0.050000001 0.85294116
0.10294118 -0.050000001 0.85294116
0.10441177 -0.050000001 0.85294116
0.10588235 -0.050000001 0.85294116
0.10735294 -0.050000001 0.85294116
0.10882353 -0.050000001 0.85294116
0.11029412 -0.050000001 0.85294116
0.11176471 -0.050000001 0.85294116
0.1137931 -0.050246306 0.85714287
0.11527093 -0.050246306 0.85714287
0.11674877 -0.050246306 0.85714287
0.1182266 -0.050246306 0.85714287
0.11941032 -0.05012285 0.85503685
0.12088452 -0.05012285 0.85503685
0.12235872 -0.05012285 0.85503685
0.12413793 -0.050246306 0.85714287
0.125 -0.050000001 0.85294116
0.1264706 -0.050000001 0.85294116
0.12794118 -0.050000001 0.85294116
0.12909536 -0.049877752 0.85085577
0.13056235 -0.049877752 0.85085577
0.13267814 -0.05012285 0.85503685
0.13382353 -0.050000001 0.85294116
0.13496332 -0.049877752 0.85085577
0.13676471 -0.050000001 0.85294116
0.1382353 -0.050000001 0.85294116
0.13970588 -0.050000001 0.85294116
0.14083129 -0.049877752 0.85085577
0.14229828 -0.049877752 0.85085577
0.14376529 -0.049877752 0.85085577
0.14523228 -0.049877752 0.85085577
0.14669926 -0.049877752 0.85085577
0.14816625 -0.049877752 0.85085577
0.14963326 -0.049877752 0.85085577
0.15073171 -0.049756099 0.84878051
0.15219513 -0.049756099 0.84878051
0.15365854 -0.049756099 0.84878051
0.15512195 -0.049756099 0.84878051
0.15620437 -0.049635038 0.84671533
0.15766424 -0.049635038 0.84671533
0.15912409 -0.049635038 0.84671533
0.16058394 -0.049635038 0.84671533
0.16204379 -0.049635038 0.84671533
0.16350365 -0.049635038 0.84671533
0.1649635 -0.049635038 0.84671533
0.16682927 -0.049756099 0.84878051
0.16829269 -0.049756099 0.84878051
0.16934307 -0.049635038 0.84671533
0.17080292 -0.049635038 0.84671533
0.17226277 -0.049635038 0.84671533
0.17414634 -0.049756099 0.84878051
0.17560975 -0.049756099 0.84878051
0.17707317 -0.049756099 0.84878051
0.17853658 -0.049756099 0.84878051
0.18000001 -0.049756099 0.84878051
0.1810219 -0.049635038 0.84671533
0.18292683 -0.049756099 0.84878051
0.18439025 -0.049756099 0.84878051
0.18585366 -0.049756099 0.84878051
0.18686131 -0.049635038 0.84671533
0.18878049 -0.049756099 0.84878051
0.1902439 -0.049756099 0.84878051
0.19170731 -0.049756099 0.84878051
0.19317073 -0.049756099 0.84878051
0.19463414 -0.049756099 0.84878051
0.19609757 -0.049756099 0.84878051
0.19756098 -0.049756099 0.84878051
0.19951101 -0.049877752 0.85085577
0.200978 -0.049877752 0.85085577
0.20244499 -0.049877752 0.85085577
0.20391198 -0.049877752 0.85085577
0.20537898 -0.049877752 0.85085577
0.20735294 -0.050000001 0.85294116
0.20882353 -0.050000001 0.85294116
0.21081081 -0.05012285 0.85503685
0.21228501 -0.05012285 0.85503685
0.21375921 -0.05012285 0.85503685
0.21576355 -0.050246306 0.85714287
0.21670762 -0.05012285 0.85503685
0.21871921 -0.050246306 0.85714287
0.22019705 -0.050246306 0.85714287
0.22167487 -0.050246306 0.85714287
0.22425742 -0.050495051 0.86138612
0.22574258 -0.050495051 0.86138612
0.22722772 -0.050495051 0.86138612
0.2292804 -0.050620347 0.8635236
0.23134328 -0.05074627 0.86567163
0.23283581 -0.05074627 0.86567163
0.23432836 -0.05074627 0.86567163
0.23640898 -0.050872818 0.8678304
0.2385 -0.050999999 0.87
0.24120604 -0.05125628 0.87437189
0.24271357 -0.05125628 0.87437189
0.24483627 -0.051385392 0.87657428
0.24634761 -0.051385392 0.87657428
0.24848485 -0.051515151 0.87878788
0.25126904 -0.051776651 0.88324875
0.25343511 -0.051908396 0.8854962
0.25496182 -0.051908396 0.8854962
0.25648856 -0.051908396 0.8854962
-0.097127937 -0.051697128 0.90861619
-0.095561355 -0.051697128 0.90861619
-0.093994781 -0.051697128 0.90861619
-0.092187501 -0.051562499 0.90625
-0.090625003 -0.051562499 0.90625
-0.088372096 -0.051162791 0.89922482
-0.086597942 -0.051030926 0.89690721
-0.084615387 -0.050769232 0.8923077
-0.083076924 -0.050769232 0.8923077
-0.081329927 -0.050639387 0.89002556
-0.079795398 -0.050639387 0.89002556
-0.077664971 -0.050253808 0.88324875
-0.076142132 -0.050253808 0.88324875
-0.074619286 -0.050253808 0.88324875
-0.073096447 -0.050253808 0.88324875
-0.07121212 -0.050000001 0.87878788
-0.06969697 -0.050000001 0.87878788
-0.06818182 -0.050000001 0.87878788
-0.06666667 -0.050000001 0.87878788
-0.064987406 -0.049874056 0.87657428
-0.063316584 -0.049748745 0.87437189
-0.061809044 -0.049748745 0.87437189
-0.060150377 -0.049624059 0.87218046
-0.058646616 -0.049624059 0.87218046
-0.057 -0.0495 0.87
-0.055500001 -0.0495 0.87
-0.054000001 -0.0495 0.87
-0.052369077 -0.049376559 0.8678304
-0.050872818 -0.049376559 0.8678304
-0.049253732 -0.049253732 0.86567163
-0.047761194 -0.049253732 0.86567163
-0.046268657 -0.049253732 0.86567163
-0.044665013 -0.049131513 0.8635236
-0.043176178 -0.049131513 0.8635236
-0.041687343 -0.049131513 0.8635236
-0.04009901 -0.049009901 0.86138612
-0.03861386 -0.049009901 0.86138612
-0.037128713 -0.049009901 0.86138612
-0.035643563 -0.049009901 0.86138612
-0.034074076 -0.048888888 0.85925925
-0.032592591 -0.048888888 0.85925925
-0.031111112 -0.048888888 0.85925925
-0.029629629 -0.048888888 0.85925925
-0.028148148 -0.048888888 0.85925925
-0.026666667 -0.048888888 0.85925925
-0.025123153 -0.048768472 0.85714287
-0.023703704 -0.048888888 0.85925925
-0.022222223 -0.048888888 0.85925925
-0.020689655 -0.048768472 0.85714287
-0.019211823 -0.048768472 0.85714287
-0.017733989 -0.048768472 0.85714287
-0.016256157 -0.048768472 0.85714287
-0.014778325 -0.048768472 0.85714287
-0.013300492 -0.048768472 0.85714287
-0.01182266 -0.048768472 0.85714287
-0.01031941 -0.048648648 0.85503685
-0.0088452091 -0.048648648 0.85503685
-0.0073891627 -0.048768472 0.85714287
-0.0058968058 -0.048648648 0.85503685
-0.0044226046 -0.048648648 0.85503685
-0.0029484029 -0.048648648 0.85503685
-0.0014742014 -0.048648648 0.85503685
0 -0.048648648 0.85503685
0.0014742014 -0.048648648 0.85503685
0.0029484029 -0.048648648 0.85503685
0.0044334973 -0.048768472 0.85714287
0.0059113302 -0.048768472 0.85714287
0.0073891627 -0.048768472 0.85714287
0.0088669946 -0.048768472 0.85714287
0.01031941 -0.048648648 0.85503685
0.011793612 -0.048648648 0.85503685
0.013267813 -0.048648648 0.85503685
0.014742015 -0.048648648 0.85503685
0.016216217 -0.048648648 0.85503685
0.017690418 -0.048648648 0.85503685
0.01916462 -0.048648648 0.85503685
0.020689655 -0.048768472 0.85714287
0.022167487 -0.048768472 0.85714287
0.023645321 -0.048768472 0.85714287
0.025185185 -0.048888888 0.85925925
0.026666667 -0.048888888 0.85925925
0.028009828 -0.048648648 0.85503685
0.029629629 -0.048888888 0.85925925
0.031111112 -0.048888888 0.85925925
0.032512315 -0.048768472 0.85714287
0.033990148 -0.048768472 0.85714287
0.035555556 -0.048888888 0.85925925
0.037128713 -0.049009901 0.86138612
0.03861386 -0.049009901 0.86138612
0.039901476 -0.048768472 0.85714287
0.04158416 -0.049009901 0.86138612
0.042857144 -0.048768472 0.85714287
0.044334974 -0.048768472 0.85714287
0.045812808 -0.048768472 0.85714287
0.047290642 -0.048768472 0.85714287
0.048768472 -0.048768472 0.85714287
0.050246306 -0.048768472 0.85714287
0.05172414 -0.048768472 0.85714287
0.05320197 -0.048768472 0.85714287
0.054679804 -0.048768472 0.85714287
0.056019656 -0.048648648 0.85503685
0.057493858 -0.048648648 0.85503685
0.05882353 -0.048529413 0.85294116
0.060294118 -0.048529413 0.85294116
0.061764706 -0.048529413 0.85294116
0.063390665 -0.048648648 0.85503685
0.064705886 -0.048529413 0.85294116
0.066176474 -0.048529413 0.85294116
0.06781327 -0.048648648 0.85503685
0.069287471 -0.048648648 0.85503685
0.070588239 -0.048529413 0.85294116
0.072058827 -0.048529413 0.85294116
0.073529415 -0.048529413 0.85294116
0.074816629 -0.048410758 0.85085577
0.076283619 -0.048410758 0.85085577
0.077750608 -0.048410758 0.85085577
0.079217605 -0.048410758 0.85085577
0.080684595 -0.048410758 0.85085577
0.082151592 -0.048410758 0.85085577
0.083618581 -0.048410758 0.85085577
0.085085578 -0.048410758 0.85085577
0.086552568 -0.048410758 0.85085577
0.088235296 -0.048529413 0.85294116
0.089705884 -0.048529413 0.85294116
0.091176473 -0.048529413 0.85294116
0.092647061 -0.048529413 0.85294116
0.09388753 -0.048410758 0.85085577
0.095588237 -0.048529413 0.85294116
0.097297296 -0.048648648 0.85503685
0.098529413 -0.048529413 0.85294116
0.1 -0.048529413 0.85294116
0.10147059 -0.048529413 0.85294116
0.10294118 -0.048529413 0.85294116
0.10441177 -0.048529413 0.85294116
0.10588235 -0.048529413 0.85294116
0.10735294 -0.048529413 0.85294116
0.10882353 -0.048529413 0.85294116
0.11029412 -0.048529413 0.85294116
0.11176471 -0.048529413 0.85294116
0.1137931 -0.048768472 0.85714287
0.11527093 -0.048768472 0.85714287
0.11674877 -0.048768472 0.85714287
0.11764706 -0.048529413 0.85294116
0.11941032 -0.048648648 0.85503685
0.1202934 -0.048410758 0.85085577
0.12235872 -0.048648648 0.85503685
0.12383293 -0.048648648 0.85503685
0.12469438 -0.048410758 0.85085577
0.1264706 -0.048529413 0.85294116
0.12762836 -0.048410758 0.85085577
0.12909536 -0.048410758 0.85085577
0.13056235 -0.048410758 0.85085577
0.13202934 -0.048410758 0.85085577
0.13382353 -0.048529413 0.85294116
0.13496332 -0.048410758 0.85085577
0.13643032 -0.048410758 0.85085577
0.1382353 -0.048529413 0.85294116
0.13902439 -0.048292682 0.84878051
0.14048781 -0.048292682 0.84878051
0.14229828 -0.048410758 0.85085577
0.14341463 -0.048292682 0.84878051
0.14487804 -0.048292682 0.84878051
0.14598539 -0.048175182 0.84671533
0.14816625 -0.048410758 0.85085577
0.14890511 -0.048175182 0.84671533
0.15036497 -0.048175182 0.84671533
0.15219513 -0.048292682 0.84878051
0.15365854 -0.048292682 0.84878051
0.15474452 -0.048175182 0.84671533
0.15620437 -0.048175182 0.84671533
0.15766424 -0.048175182 0.84671533
0.15912409 -0.048175182 0.84671533
0.16058394 -0.048175182 0.84671533
0.16165048 -0.048058253 0.84466022
0.1631068 -0.048058253 0.84466022
0.1649635 -0.048175182 0.84671533
0.16642335 -0.048175182 0.84671533
0.16788322 -0.048175182 0.84671533
0.16934307 -0.048175182 0.84671533
0.17080292 -0.048175182 0.84671533
0.17226277 -0.048175182 0.84671533
0.17330097 -0.048058253 0.84466022
0.17475729 -0.048058253 0.84466022
0.17621359 -0.048058253 0.84466022
0.1776699 -0.048058253 0.84466022
0.17912622 -0.048058253 0.84466022
0.1810219 -0.048175182 0.84671533
0.18248175 -0.048175182 0.84671533
0.1839416 -0.048175182 0.84671533
0.18540145 -0.048175182 0.84671533
0.18686131 -0.048175182 0.84671533
0.18832117 -0.048175182 0.84671533
0.1902439 -0.048292682 0.84878051
0.19170731 -0.048292682 0.84878051
0.19317073 -0.048292682 0.84878051
0.19463414 -0.048292682 0.84878051
0.19609757 -0.048292682 0.84878051
0.19756098 -0.048292682 0.84878051
0.19951101 -0.048410758 0.85085577
0.200978 -0.048410758 0.85085577
0.20244499 -0.048410758 0.85085577
0.20391198 -0.048410758 0.85085577
0.20537898 -0.048410758 0.85085577
0.20684597 -0.048410758 0.85085577
0.20882353 -0.048529413 0.85294116
0.21029411 -0.048529413 0.85294116
0.21228501 -0.048648648 0.85503685
0.21375921 -0.048648648 0.85503685
0.21523342 -0.048648648 0.85503685
0.21670762 -0.048648648 0.85503685
0.21871921 -0.048768472 0.85714287
0.22019705 -0.048768472 0.85714287
0.22167487 -0.048768472 0.85714287
0.2237037 -0.048888888 0.85925925
0.22574258 -0.049009901 0.86138612
0.22779156 -0.049131513 0.8635236
0.2292804 -0.049131513 0.8635236
0.23076923 -0.049131513 0.8635236
0.23283581 -0.049253732 0.86567163
0.23432836 -0.049253732 0.86567163
0.23640898 -0.049376559 0.8678304
0.2385 -0.0495 0.87
0.24120604 -0.049748745 0.87437189
0.24271357 -0.049748745 0.87437189
0.24422111 -0.049748745 0.87437189
0.24759494 -0.050126582 0.88101268
0.24911392 -0.050126582 0.88101268
0.25126904 -0.050253808 0.88324875
0.25279188 -0.050253808 0.88324875
0.25431472 -0.050253808 0.88324875
0.25648856 -0.050381679 0.8854962
-0.098694518 -0.05013055 0.90861619
-0.097127937 -0.05013055 0.90861619
-0.095561355 -0.05013055 0.90861619
-0.093994781 -0.05013055 0.90861619
-0.0924282 -0.05013055 0.90861619
-0.08992248 -0.049612403 0.89922482
-0.088372096 -0.049612403 0.89922482
-0.086821705 -0.049612403 0.89922482
-0.084832907 -0.049357325 0.89460152
-0.083076924 -0.049230769 0.8923077
-0.081329927 -0.049104858 0.89002556
-0.079795398 -0.049104858 0.89002556
-0.077862598 -0.048854962 0.8854962
-0.076142132 -0.048730966 0.88324875
-0.074619286 -0.048730966 0.88324875
-0.073096447 -0.048730966 0.88324875
-0.07121212 -0.048484847 0.87878788
-0.06969697 -0.048484847 0.87878788
-0.06818182 -0.048484847 0.87878788
-0.066498742 -0.048362721 0.87657428
-0.064987406 -0.048362721 0.87657428
-0.063316584 -0.048241206 0.87437189
-0.061809044 -0.048241206 0.87437189
-0.060150377 -0.048120301 0.87218046
-0.058646616 -0.048120301 0.87218046
-0.057 -0.048 0.87
-0.055500001 -0.048 0.87
-0.053865336 -0.047880299 0.8678304
-0.052369077 -0.047880299 0.8678304
-0.05074627 -0.047761194 0.86567163
-0.049253732 -0.047761194 0.86567163
-0.047761194 -0.047761194 0.86567163
-0.046153847 -0.047642682 0.8635236
-0.044665013 -0.047642682 0.8635236
-0.043176178 -0.047642682 0.8635236
-0.04158416 -0.047524754 0.86138612
-0.04009901 -0.047524754 0.86138612
-0.03861386 -0.047524754 0.86138612
-0.037128713 -0.047524754 0.86138612
-0.035555556 -0.047407407 0.85925925
-0.034074076 -0.047407407 0.85925925
-0.032592591 -0.047407407 0.85925925
-0.031111112 -0.047407407 0.85925925
-0.029629629 -0.047407407 0.85925925
-0.028148148 -0.047407407 0.85925925
-0.026600985 -0.047290642 0.85714287
-0.025123153 -0.047290642 0.85714287
-0.023645321 -0.047290642 0.85714287
-0.022113021 -0.047174446 0.85503685
-0.020689655 -0.047290642 0.85714287
-0.019211823 -0.047290642 0.85714287
-0.017733989 -0.047290642 0.85714287
-0.016256157 -0.047290642 0.85714287
-0.014778325 -0.047290642 0.85714287
-0.013300492 -0.047290642 0.85714287
-0.011793612 -0.047174446 0.85503685
-0.01031941 -0.047174446 0.85503685
-0.0088452091 -0.047174446 0.85503685
-0.0073710075 -0.047174446 0.85503685
-0.0058968058 -0.047174446 0.85503685
-0.0044226046 -0.047174446 0.85503685
-0.0029484029 -0.047174446 0.85503685
-0.0014742014 -0.047174446 0.85503685
0 -0.047058824 0.85294116
0.0014742014 -0.047174446 0.85503685
0.0029484029 -0.047174446 0.85503685
0.0044117649 -0.047058824 0.85294116
0.0058823531 -0.047058824 0.85294116
0.0073529412 -0.047058824 0.85294116
0.0088452091 -0.047174446 0.85503685
0.01031941 -0.047174446 0.85503685
0.011793612 -0.047174446 0.85503685
0.013267813 -0.047174446 0.85503685
0.014742015 -0.047174446 0.85503685
0.016216217 -0.047174446 0.85503685
0.01764706 -0.047058824 0.85294116
0.019117648 -0.047058824 0.85294116
0.020588236 -0.047058824 0.85294116
0.022058824 -0.047058824 0.85294116
0.023529412 -0.047058824 0.85294116
0.025061425 -0.047174446 0.85503685
0.026535627 -0.047174446 0.85503685
0.028009828 -0.047174446 0.85503685
0.02948403 -0.047174446 0.85503685
0.030958232 -0.047174446 0.85503685
0.032432433 -0.047174446 0.85503685
0.033990148 -0.047290642 0.85714287
0.035380837 -0.047174446 0.85503685
0.036855038 -0.047174446 0.85503685
0.03832924 -0.047174446 0.85503685
0.039901476 -0.047290642 0.85714287
0.04137931 -0.047290642 0.85714287
0.042857144 -0.047290642 0.85714287
0.044334974 -0.047290642 0.85714287
0.045812808 -0.047290642 0.85714287
0.047290642 -0.047290642 0.85714287
0.048768472 -0.047290642 0.85714287
0.050246306 -0.047290642 0.85714287
0.05172414 -0.047290642 0.85714287
0.05320197 -0.047290642 0.85714287
0.054679804 -0.047290642 0.85714287
0.056157634 -0.047290642 0.85714287
0.057635467 -0.047290642 0.85714287
0.059113301 -0.047290642 0.85714287
0.060591131 -0.047290642 0.85714287
0.062068965 -0.047290642 0.85714287
0.063390665 -0.047174446 0.85503685
0.064864866 -0.047174446 0.85503685
0.066339068 -0.047174446 0.85503685
0.06781327 -0.047174446 0.85503685
0.069287471 -0.047174446 0.85503685
0.070588239 -0.047058824 0.85294116
0.072058827 -0.047058824 0.85294116
0.073529415 -0.047058824 0.85294116
0.074816629 -0.046943765 0.85085577
0.076283619 -0.046943765 0.85085577
0.078132682 -0.047174446 0.85503685
0.079606883 -0.047174446 0.85503685
0.080684595 -0.046943765 0.85085577
0.082555279 -0.047174446 0.85503685
0.083823532 -0.047058824 0.85294116
0.08529412 -0.047058824 0.85294116
0.086764708 -0.047058824 0.85294116
0.088235296 -0.047058824 0.85294116
0.089705884 -0.047058824 0.85294116
0.091176473 -0.047058824 0.85294116
0.092874691 -0.047174446 0.85503685
0.094348893 -0.047174446 0.85503685
0.095823094 -0.047174446 0.85503685
0.097297296 -0.047174446 0.85503685
0.098771498 -0.047174446 0.85503685
0.1002457 -0.047174446 0.85503685
0.10147059 -0.047058824 0.85294116
0.10294118 -0.047058824 0.85294116
0.10441177 -0.047058824 0.85294116
0.10588235 -0.047058824 0.85294116
0.10761671 -0.047174446 0.85503685
0.10909091 -0.047174446 0.85503685
0.11029412 -0.047058824 0.85294116
0.11176471 -0.047058824 0.85294116
0.11295844 -0.046943765 0.85085577
0.11470588 -0.047058824 0.85294116
0.11617647 -0.047058824 0.85294116
0.11764706 -0.047058824 0.85294116
0.1188264 -0.046943765 0.85085577
0.1202934 -0.046943765 0.85085577
0.12176039 -0.046943765 0.85085577
0.12322738 -0.046943765 0.85085577
0.12469438 -0.046943765 0.85085577
0.12585366 -0.046829268 0.84878051
0.12762836 -0.046943765 0.85085577
0.12909536 -0.046943765 0.85085577
0.13056235 -0.046943765 0.85085577
0.13202934 -0.046943765 0.85085577
0.13284671 -0.046715327 0.84671533
0.13430656 -0.046715327 0.84671533
0.13576642 -0.046715327 0.84671533
0.13722628 -0.046715327 0.84671533
0.13868614 -0.046715327 0.84671533
0.14048781 -0.046829268 0.84878051
0.14126213 -0.04660194 0.84466022
0.14341463 -0.046829268 0.84878051
0.14452554 -0.046715327 0.84671533
0.14598539 -0.046715327 0.84671533
0.14708738 -0.04660194 0.84466022
0.14854369 -0.04660194 0.84466022
0.15036497 -0.046715327 0.84671533
0.15182482 -0.046715327 0.84671533
0.15328467 -0.046715327 0.84671533
0.15474452 -0.046715327 0.84671533
0.15620437 -0.046715327 0.84671533
0.15766424 -0.046715327 0.84671533
0.15912409 -0.046715327 0.84671533
0.16019417 -0.04660194 0.84466022
0.16165048 -0.04660194 0.84466022
0.1631068 -0.04660194 0.84466022
0.1645631 -0.04660194 0.84466022
0.16601942 -0.04660194 0.84466022
0.16788322 -0.046715327 0.84671533
0.16934307 -0.046715327 0.84671533
0.17038836 -0.04660194 0.84466022
0.17184466 -0.04660194 0.84466022
0.17330097 -0.04660194 0.84466022
0.17475729 -0.04660194 0.84466022
0.17621359 -0.04660194 0.84466022
0.1776699 -0.04660194 0.84466022
0.17912622 -0.04660194 0.84466022
0.18058252 -0.04660194 0.84466022
0.18248175 -0.046715327 0.84671533
0.1839416 -0.046715327 0.84671533
0.18540145 -0.046715327 0.84671533
0.18686131 -0.046715327 0.84671533
0.18832117 -0.046715327 0.84671533
0.18978103 -0.046715327 0.84671533
0.19124088 -0.046715327 0.84671533
0.19270073 -0.046715327 0.84671533
0.19416058 -0.046715327 0.84671533
0.19562043 -0.046715327 0.84671533
0.19756098 -0.046829268 0.84878051
0.19902439 -0.046829268 0.84878051
0.20048781 -0.046829268 0.84878051
0.20244499 -0.046943765 0.85085577
0.20391198 -0.046943765 0.85085577
0.20537898 -0.046943765 0.85085577
0.20735294 -0.047058824 0.85294116
0.20882353 -0.047058824 0.85294116
0.21029411 -0.047058824 0.85294116
0.21176471 -0.047058824 0.85294116
0.21323529 -0.047058824 0.85294116
0.21470588 -0.047058824 0.85294116
0.21670762 -0.047174446 0.85503685
0.21818182 -0.047174446 0.85503685
0.22019705 -0.047290642 0.85714287
0.22222222 -0.047407407 0.85925925
0.2237037 -0.047407407 0.85925925
0.22574258 -0.047524754 0.86138612
0.22722772 -0.047524754 0.86138612
0.2292804 -0.047642682 0.8635236
0.23076923 -0.047642682 0.8635236
0.23225807 -0.047642682 0.8635236
0.23432836 -0.047761194 0.86567163
0.23640898 -0.047880299 0.8678304
0.23909774 -0.048120301 0.87218046
0.24060151 -0.048120301 0.87218046
0.24271357 -0.048241206 0.87437189
0.24483627 -0.048362721 0.87657428
0.2469697 -0.048484847 0.87878788
0.24911392 -0.048607595 0.88101268
0.25126904 -0.048730966 0.88324875
0.25343511 -0.048854962 0.8854962
0.25496182 -0.048854962 0.8854962
0.25648856 -0.048854962 0.8854962
-0.097127937 -0.048563968 0.90861619
-0.095561355 -0.048563968 0.90861619
-0.093994781 -0.048563968 0.90861619
-0.092187501 -0.048437499 0.90625
-0.090389609 -0.048311688 0.90389609
-0.088372096 -0.048062015 0.89922482
-0.086821705 -0.048062015 0.89922482
-0.084832907 -0.047814909 0.89460152
-0.082864448 -0.047570333 0.89002556
-0.081329927 -0.047570333 0.89002556
-0.079795398 -0.047570333 0.89002556
-0.077862598 -0.047328245 0.8854962
-0.076142132 -0.047208123 0.88324875
-0.074619286 -0.047208123 0.88324875
-0.07272727 -0.046969697 0.87878788
-0.07121212 -0.046969697 0.87878788
-0.06969697 -0.046969697 0.87878788
-0.06818182 -0.046969697 0.87878788
-0.066498742 -0.046851385 0.87657428
-0.064824119 -0.04673367 0.87437189
-0.063316584 -0.04673367 0.87437189
-0.061654136 -0.046616543 0.87218046
-0.060150377 -0.046616543 0.87218046
-0.058646616 -0.046616543 0.87218046
-0.057 -0.046500001 0.87
-0.055500001 -0.046500001 0.87
-0.053865336 -0.04638404 0.8678304
-0.052369077 -0.04638404 0.8678304
-0.05074627 -0.046268657 0.86567163
-0.049253732 -0.046268657 0.86567163
-0.047761194 -0.046268657 0.86567163
-0.046153847 -0.046153847 0.8635236
-0.044665013 -0.046153847 0.8635236
-0.043069307 -0.046039604 0.86138612
-0.04158416 -0.046039604 0.86138612
-0.04009901 -0.046039604 0.86138612
-0.03861386 -0.046039604 0.86138612
-0.037037037 -0.045925926 0.85925925
-0.035555556 -0.045925926 0.85925925
-0.034074076 -0.045925926 0.85925925
-0.032592591 -0.045925926 0.85925925
-0.031111112 -0.045925926 0.85925925
-0.029556651 -0.045812808 0.85714287
-0.028078817 -0.045812808 0.85714287
-0.026600985 -0.045812808 0.85714287
-0.025123153 -0.045812808 0.85714287
-0.023587223 -0.045700245 0.85503685
-0.022113021 -0.045700245 0.85503685
-0.02063882 -0.045700245 0.85503685
-0.01916462 -0.045700245 0.85503685
-0.017690418 -0.045700245 0.85503685
-0.016256157 -0.045812808 0.85714287
-0.014705882 -0.045588236 0.85294116
-0.013235294 -0.045588236 0.85294116
-0.011793612 -0.045700245 0.85503685
-0.01031941 -0.045700245 0.85503685
-0.0088452091 -0.045700245 0.85503685
-0.0073529412 -0.045588236 0.85294116
-0.0058968058 -0.045700245 0.85503685
-0.0044117649 -0.045588236 0.85294116
-0.0029484029 -0.045700245 0.85503685
-0.0014742014 -0.045700245 0.85503685
0 -0.045588236 0.85294116
0.0014705883 -0.045588236 0.85294116
0.0029411765 -0.045588236 0.85294116
0.0044117649 -0.045588236 0.85294116
0.0058823531 -0.045588236 0.85294116
0.0073529412 -0.045588236 0.85294116
0.0088235298 -0.045588236 0.85294116
0.01031941 -0.045700245 0.85503685
0.011764706 -0.045588236 0.85294116
0.013235294 -0.045588236 0.85294116
0.014705882 -0.045588236 0.85294116
0.016176471 -0.045588236 0.85294116
0.01764706 -0.045588236 0.85294116
0.019117648 -0.045588236 0.85294116
0.020588236 -0.045588236 0.85294116
0.022058824 -0.045588236 0.85294116
0.023529412 -0.045588236 0.85294116
0.025 -0.045588236 0.85294116
0.026470589 -0.045588236 0.85294116
0.028009828 -0.045700245 0.85503685
0.02948403 -0.045700245 0.85503685
0.030958232 -0.045700245 0.85503685
0.032432433 -0.045700245 0.85503685
0.033906635 -0.045700245 0.85503685
0.035380837 -0.045700245 0.85503685
0.036855038 -0.045700245 0.85503685
0.03832924 -0.045700245 0.85503685
0.039803442 -0.045700245 0.85503685
0.04137931 -0.045812808 0.85714287
0.042857144 -0.045812808 0.85714287
0.044226043 -0.045700245 0.85503685
0.045700245 -0.045700245 0.85503685
0.047290642 -0.045812808 0.85714287
0.048768472 -0.045812808 0.85714287
0.050000001 -0.045588236 0.85294116
0.051470589 -0.045588236 0.85294116
0.052941177 -0.045588236 0.85294116
0.054545455 -0.045700245 0.85503685
0.056157634 -0.045812808 0.85714287
0.057352941 -0.045588236 0.85294116
0.05882353 -0.045588236 0.85294116
0.060591131 -0.045812808 0.85714287
0.062068965 -0.045812808 0.85714287
0.063546799 -0.045812808 0.85714287
0.064705886 -0.045588236 0.85294116
0.066339068 -0.045700245 0.85503685
0.06781327 -0.045700245 0.85503685
0.069287471 -0.045700245 0.85503685
0.070761673 -0.045700245 0.85503685
0.072235875 -0.045700245 0.85503685
0.073710077 -0.045700245 0.85503685
0.075000003 -0.045588236 0.85294116
0.07665848 -0.045700245 0.85503685
0.078132682 -0.045700245 0.85503685
0.079606883 -0.045700245 0.85503685
0.081081077 -0.045700245 0.85503685
0.082555279 -0.045700245 0.85503685
0.084029481 -0.045700245 0.85503685
0.08529412 -0.045588236 0.85294116
0.086764708 -0.045588236 0.85294116
0.088235296 -0.045588236 0.85294116
0.089926288 -0.045700245 0.85503685
0.091400489 -0.045700245 0.85503685
0.092874691 -0.045700245 0.85503685
0.094348893 -0.045700245 0.85503685
0.095823094 -0.045700245 0.85503685
0.097297296 -0.045700245 0.85503685
0.098771498 -0.045700245 0.85503685
0.1 -0.045588236 0.85294116
0.10147059 -0.045588236 0.85294116
0.10294118 -0.045588236 0.85294116
0.10441177 -0.045588236 0.85294116
0.10588235 -0.045588236 0.85294116
0.10709047 -0.045476772 0.85085577
0.10909091 -0.045700245 0.85503685
0.11029412 -0.045588236 0.85294116
0.11149144 -0.045476772 0.85085577
0.11295844 -0.045476772 0.85085577
0.11442543 -0.045476772 0.85085577
0.11589242 -0.045476772 0.85085577
0.11707317 -0.045365855 0.84878051
0.1188264 -0.045476772 0.85085577
0.1202934 -0.045476772 0.85085577
0.12176039 -0.045476772 0.85085577
0.12322738 -0.045476772 0.85085577
0.12469438 -0.045476772 0.85085577
0.12585366 -0.045365855 0.84878051
0.12700731 -0.045255475 0.84671533
0.12846716 -0.045255475 0.84671533
0.12992701 -0.045255475 0.84671533
0.13138686 -0.045255475 0.84671533
0.13284671 -0.045255475 0.84671533
0.13430656 -0.045255475 0.84671533
0.13576642 -0.045255475 0.84671533
0.13722628 -0.045255475 0.84671533
0.13868614 -0.045255475 0.84671533
0.14014599 -0.045255475 0.84671533
0.14126213 -0.045145631 0.84466022
0.14271845 -0.045145631 0.84466022
0.14452554 -0.045255475 0.84671533
0.14563107 -0.045145631 0.84466022
0.14708738 -0.045145631 0.84466022
0.14854369 -0.045145631 0.84466022
0.15000001 -0.045145631 0.84466022
0.15182482 -0.045255475 0.84671533
0.15328467 -0.045255475 0.84671533
0.15436894 -0.045145631 0.84466022
0.15582524 -0.045145631 0.84466022
0.15766424 -0.045255475 0.84671533
0.15873787 -0.045145631 0.84466022
0.16019417 -0.045145631 0.84466022
0.16165048 -0.045145631 0.84466022
0.1631068 -0.045145631 0.84466022
0.1645631 -0.045145631 0.84466022
0.16601942 -0.045145631 0.84466022
0.16747573 -0.045145631 0.84466022
0.16893204 -0.045145631 0.84466022
0.17038836 -0.045145631 0.84466022
0.17184466 -0.045145631 0.84466022
0.17330097 -0.045145631 0.84466022
0.17475729 -0.045145631 0.84466022
0.17621359 -0.045145631 0.84466022
0.1776699 -0.045145631 0.84466022
0.17912622 -0.045145631 0.84466022
0.18058252 -0.045145631 0.84466022
0.18248175 -0.045255475 0.84671533
0.18349515 -0.045145631 0.84466022
0.18540145 -0.045255475 0.84671533
0.18686131 -0.045255475 0.84671533
0.18832117 -0.045255475 0.84671533
0.18978103 -0.045255475 0.84671533
0.19124088 -0.045255475 0.84671533
0.19270073 -0.045255475 0.84671533
0.19416058 -0.045255475 0.84671533
0.19562043 -0.045255475 0.84671533
0.19756098 -0.045365855 0.84878051
0.19902439 -0.045365855 0.84878051
0.20048781 -0.045365855 0.84878051
0.20195122 -0.045365855 0.84878051
0.20441176 -0.045588236 0.85294116
0.20588236 -0.045588236 0.85294116
0.20735294 -0.045588236 0.85294116
0.20882353 -0.045588236 0.85294116
0.21029411 -0.045588236 0.85294116
0.21176471 -0.045588236 0.85294116
0.21323529 -0.045588236 0.85294116
0.21470588 -0.045588236 0.85294116
0.21670762 -0.045700245 0.85503685
0.21818182 -0.045700245 0.85503685
0.22019705 -0.045812808 0.85714287
0.22222222 -0.045925926 0.85925925
0.2237037 -0.045925926 0.85925925
0.22574258 -0.046039604 0.86138612
0.22722772 -0.046039604 0.86138612
0.22871287 -0.046039604 0.86138612
0.23076923 -0.046153847 0.8635236
0.23225807 -0.046153847 0.8635236
0.23432836 -0.046268657 0.86567163
0.23759398 -0.046616543 0.87218046
0.23909774 -0.046616543 0.87218046
0.24060151 -0.046616543 0.87218046
0.24210526 -0.046616543 0.87218046
0.24483627 -0.046851385 0.87657428
0.2469697 -0.046969697 0.87878788
0.24974619 -0.047208123 0.88324875
0.25126904 -0.047208123 0.88324875
0.25343511 -0.047328245 0.8854962
0.25496182 -0.047328245 0.8854962
0.25648856 -0.047328245 0.8854962
0.25801528 -0.047328245 0.8854962
-0.097127937 -0.046997391 0.90861619
-0.095312499 -0.046875 0.90625
-0.09375 -0.046875 0.90625
-0.092187501 -0.046875 0.90625
-0.090389609 -0.046753246 0.90389609
-0.088601038 -0.046632126 0.90155441
-0.086821705 -0.046511628 0.89922482
-0.085271321 -0.046511628 0.89922482
-0.082864448 -0.046035804 0.89002556
-0.081329927 -0.046035804 0.89002556
-0.079591833 -0.045918368 0.8877551
-0.078061223 -0.045918368 0.8877551
-0.076142132 -0.04568528 0.88324875
-0.074619286 -0.04568528 0.88324875
-0.072911389 -0.045569621 0.88101268
-0.07121212 -0.045454547 0.87878788
-0.06969697 -0.045454547 0.87878788
-0.068010077 -0.04534005 0.87657428
-0.066498742 -0.04534005 0.87657428
-0.064824119 -0.045226131 0.87437189
-0.063316584 -0.045226131 0.87437189
-0.061654136 -0.045112781 0.87218046
-0.060150377 -0.045112781 0.87218046
-0.058646616 -0.045112781 0.87218046
-0.057 -0.045000002 0.87
-0.055361595 -0.044887781 0.8678304
-0.053865336 -0.044887781 0.8678304
-0.052369077 -0.044887781 0.8678304
-0.05074627 -0.044776119 0.86567163
-0.049253732 -0.044776119 0.86567163
-0.047761194 -0.044776119 0.86567163
-0.046153847 -0.044665013 0.8635236
-0.044554457 -0.044554457 0.86138612
-0.043069307 -0.044554457 0.86138612
-0.04158416 -0.044554457 0.86138612
-0.04009901 -0.044554457 0.86138612
-0.038518518 -0.044444446 0.85925925
-0.037037037 -0.044444446 0.85925925
-0.035555556 -0.044444446 0.85925925
-0.034074076 -0.044444446 0.85925925
-0.032592591 -0.044444446 0.85925925
-0.031111112 -0.044444446 0.85925925
-0.029556651 -0.044334974 0.85714287
-0.028078817 -0.044334974 0.85714287
-0.026535627 -0.044226043 0.85503685
-0.025061425 -0.044226043 0.85503685
-0.023587223 -0.044226043 0.85503685
-0.022113021 -0.044226043 0.85503685
-0.02063882 -0.044226043 0.85503685
-0.01916462 -0.044226043 0.85503685
-0.017690418 -0.044226043 0.85503685
-0.016176471 -0.044117648 0.85294116
-0.014705882 -0.044117648 0.85294116
-0.013235294 -0.044117648 0.85294116
-0.011764706 -0.044117648 0.85294116
-0.01031941 -0.044226043 0.85503685
-0.0088235298 -0.044117648 0.85294116
-0.0073529412 -0.044117648 0.85294116
-0.0058823531 -0.044117648 0.85294116
-0.0044117649 -0.044117648 0.85294116
-0.0029411765 -0.044117648 0.85294116
-0.0014705883 -0.044117648 0.85294116
0 -0.044117648 0.85294116
0.0014705883 -0.044117648 0.85294116
0.0029411765 -0.044117648 0.85294116
0.0044117649 -0.044117648 0.85294116
0.0058823531 -0.044117648 0.85294116
0.0073529412 -0.044117648 0.85294116
0.0088019557 -0.044009779 0.85085577
0.010268949 -0.044009779 0.85085577
0.011707317 -0.043902438 0.84878051
0.013235294 -0.044117648 0.85294116
0.014705882 -0.044117648 0.85294116
0.016176471 -0.044117648 0.85294116
0.01764706 -0.044117648 0.85294116
0.019024391 -0.043902438 0.84878051
0.020588236 -0.044117648 0.85294116
0.022058824 -0.044117648 0.85294116
0.023471883 -0.044009779 0.85085577
0.024938876 -0.044009779 0.85085577
0.026470589 -0.044117648 0.85294116
0.02787286 -0.044009779 0.85085577
0.029339854 -0.044009779 0.85085577
0.030806845 -0.044009779 0.85085577
0.03227384 -0.044009779 0.85085577
0.03374083 -0.044009779 0.85085577
0.035294119 -0.044117648 0.85294116
0.036764707 -0.044117648 0.85294116
0.038235296 -0.044117648 0.85294116
0.039608803 -0.044009779 0.85085577
0.04137931 -0.044334974 0.85714287
0.042857144 -0.044334974 0.85714287
0.044117648 -0.044117648 0.85294116
0.045588236 -0.044117648 0.85294116
0.047058824 -0.044117648 0.85294116
0.048529413 -0.044117648 0.85294116
0.050000001 -0.044117648 0.85294116
0.051470589 -0.044117648 0.85294116
0.052941177 -0.044117648 0.85294116
0.054545455 -0.044226043 0.85503685
0.056019656 -0.044226043 0.85503685
0.057352941 -0.044117648 0.85294116
0.05882353 -0.044117648 0.85294116
0.060591131 -0.044334974 0.85714287
0.062068965 -0.044334974 0.85714287
0.063235298 -0.044117648 0.85294116
0.064705886 -0.044117648 0.85294116
0.066176474 -0.044117648 0.85294116
0.06781327 -0.044226043 0.85503685
0.068948656 -0.044009779 0.85085577
0.070415646 -0.044009779 0.85085577
0.072235875 -0.044226043 0.85503685
0.073529415 -0.044117648 0.85294116
0.075000003 -0.044117648 0.85294116
0.076470591 -0.044117648 0.85294116
0.078132682 -0.044226043 0.85503685
0.079606883 -0.044226043 0.85503685
0.081081077 -0.044226043 0.85503685
0.082555279 -0.044226043 0.85503685
0.084029481 -0.044226043 0.85503685
0.085085578 -0.044009779 0.85085577
0.086764708 -0.044117648 0.85294116
0.088235296 -0.044117648 0.85294116
0.089705884 -0.044117648 0.85294116
0.091400489 -0.044226043 0.85503685
0.092647061 -0.044117648 0.85294116
0.094348893 -0.044226043 0.85503685
0.095823094 -0.044226043 0.85503685
0.097297296 -0.044226043 0.85503685
0.098048784 -0.043902438 0.84878051
0.1 -0.044117648 0.85294116
0.10122249 -0.044009779 0.85085577
0.10268949 -0.044009779 0.85085577
0.10441177 -0.044117648 0.85294116
0.10562347 -0.044009779 0.85085577
0.10709047 -0.044009779 0.85085577
0.10855746 -0.044009779 0.85085577
0.10948905 -0.043795619 0.84671533
0.11149144 -0.044009779 0.85085577
0.11268292 -0.043902438 0.84878051
0.11414634 -0.043902438 0.84878051
0.11589242 -0.044009779 0.85085577
0.11707317 -0.043902438 0.84878051
0.11824817 -0.043795619 0.84671533
0.11970803 -0.043795619 0.84671533
0.12116788 -0.043795619 0.84671533
0.1223301 -0.043689322 0.84466022
0.12408759 -0.043795619 0.84671533
0.12554744 -0.043795619 0.84671533
0.12700731 -0.043795619 0.84671533
0.12846716 -0.043795619 0.84671533
0.12992701 -0.043795619 0.84671533
0.13106796 -0.043689322 0.84466022
0.13252427 -0.043689322 0.84466022
0.13430656 -0.043795619 0.84671533
0.13543689 -0.043689322 0.84466022
0.1368932 -0.043689322 0.84466022
0.13868614 -0.043795619 0.84671533
0.13980582 -0.043689322 0.84466022
0.14126213 -0.043689322 0.84466022
0.14271845 -0.043689322 0.84466022
0.14417475 -0.043689322 0.84466022
0.14563107 -0.043689322 0.84466022
0.14708738 -0.043689322 0.84466022
0.14854369 -0.043689322 0.84466022
0.15000001 -0.043689322 0.84466022
0.15182482 -0.043795619 0.84671533
0.15291262 -0.043689322 0.84466022
0.15436894 -0.043689322 0.84466022
0.15582524 -0.043689322 0.84466022
0.15728155 -0.043689322 0.84466022
0.15873787 -0.043689322 0.84466022
0.16019417 -0.043689322 0.84466022
0.16125908 -0.043583535 0.84261501
0.16271186 -0.043583535 0.84261501
0.16416465 -0.043583535 0.84261501
0.16601942 -0.043689322 0.84466022
0.16707022 -0.043583535 0.84261501
0.168523 -0.043583535 0.84261501
0.17038836 -0.043689322 0.84466022
0.17184466 -0.043689322 0.84466022
0.17330097 -0.043689322 0.84466022
0.17433414 -0.043583535 0.84261501
0.17621359 -0.043689322 0.84466022
0.1776699 -0.043689322 0.84466022
0.17912622 -0.043689322 0.84466022
0.18058252 -0.043689322 0.84466022
0.18203883 -0.043689322 0.84466022
0.18349515 -0.043689322 0.84466022
0.18495145 -0.043689322 0.84466022
0.18686131 -0.043795619 0.84671533
0.18832117 -0.043795619 0.84671533
0.18978103 -0.043795619 0.84671533
0.19124088 -0.043795619 0.84671533
0.19270073 -0.043795619 0.84671533
0.19416058 -0.043795619 0.84671533
0.19562043 -0.043795619 0.84671533
0.1970803 -0.043795619 0.84671533
0.19902439 -0.043902438 0.84878051
0.20048781 -0.043902438 0.84878051
0.20195122 -0.043902438 0.84878051
0.20391198 -0.044009779 0.85085577
0.20537898 -0.044009779 0.85085577
0.20684597 -0.044009779 0.85085577
0.20882353 -0.044117648 0.85294116
0.21029411 -0.044117648 0.85294116
0.21176471 -0.044117648 0.85294116
0.21323529 -0.044117648 0.85294116
0.21523342 -0.044226043 0.85503685
0.21670762 -0.044226043 0.85503685
0.21818182 -0.044226043 0.85503685
0.22019705 -0.044334974 0.85714287
0.22222222 -0.044444446 0.85925925
0.2237037 -0.044444446 0.85925925
0.22574258 -0.044554457 0.86138612
0.22722772 -0.044554457 0.86138612
0.22871287 -0.044554457 0.86138612
0.23076923 -0.044665013 0.8635236
0.23225807 -0.044665013 0.8635236
0.23491272 -0.044887781 0.8678304
0.237 -0.045000002 0.87
0.2385 -0.045000002 0.87
0.23999999 -0.045000002 0.87
0.24271357 -0.045226131 0.87437189
0.24422111 -0.045226131 0.87437189
0.2469697 -0.045454547 0.87878788
0.24974619 -0.04568528 0.88324875
0.25126904 -0.04568528 0.88324875
0.25343511 -0.045801528 0.8854962
0.25496182 -0.045801528 0.8854962
0.25648856 -0.045801528 0.8854962
-0.095312499 -0.045312501 0.90625
-0.09375 -0.045312501 0.90625
-0.092187501 -0.045312501 0.90625
-0.090389609 -0.045194805 0.90389609
-0.088601038 -0.045077719 0.90155441
-0.086821705 -0.04496124 0.89922482
-0.085271321 -0.04496124 0.89922482
-0.08372093 -0.04496124 0.89922482
-0.081122451 -0.044387754 0.8877551
-0.079591833 -0.044387754 0.8877551
-0.078061223 -0.044387754 0.8877551
-0.076530613 -0.044387754 0.8877551
-0.074619286 -0.044162437 0.88324875
-0.072911389 -0.044050634 0.88101268
-0.07121212 -0.043939393 0.87878788
-0.06969697 -0.043939393 0.87878788
-0.068010077 -0.043828715 0.87657428
-0.066498742 -0.043828715 0.87657428
-0.064824119 -0.043718591 0.87437189
-0.063316584 -0.043718591 0.87437189
-0.061809044 -0.043718591 0.87437189
-0.060150377 -0.043609023 0.87218046
-0.058499999 -0.043499999 0.87
-0.056857854 -0.043391522 0.8678304
-0.055361595 -0.043391522 0.8678304
-0.053865336 -0.043391522 0.8678304
-0.052369077 -0.043391522 0.8678304
-0.05074627 -0.043283582 0.86567163
-0.049131513 -0.043176178 0.8635236
-0.047642682 -0.043176178 0.8635236
-0.046153847 -0.043176178 0.8635236
-0.044554457 -0.043069307 0.86138612
-0.043069307 -0.043069307 0.86138612
-0.04158416 -0.043069307 0.86138612
-0.039999999 -0.042962965 0.85925925
-0.038518518 -0.042962965 0.85925925
-0.037037037 -0.042962965 0.85925925
-0.035467979 -0.042857144 0.85714287
-0.033990148 -0.042857144 0.85714287
-0.032592591 -0.042962965 0.85925925
-0.031111112 -0.042962965 0.85925925
-0.029556651 -0.042857144 0.85714287
-0.028078817 -0.042857144 0.85714287
-0.026600985 -0.042857144 0.85714287
-0.025061425 -0.042751841 0.85503685
-0.023587223 -0.042751841 0.85503685
-0.022113021 -0.042751841 0.85503685
-0.02063882 -0.042751841 0.85503685
-0.01916462 -0.042751841 0.85503685
-0.01764706 -0.04264706 0.85294116
-0.016176471 -0.04264706 0.85294116
-0.014705882 -0.04264706 0.85294116
-0.013235294 -0.04264706 0.85294116
-0.011764706 -0.04264706 0.85294116
-0.010294118 -0.04264706 0.85294116
-0.0088235298 -0.04264706 0.85294116
-0.0073529412 -0.04264706 0.85294116
-0.0058823531 -0.04264706 0.85294116
-0.0044117649 -0.04264706 0.85294116
-0.0029339853 -0.042542789 0.85085577
-0.0014669927 -0.042542789 0.85085577
0 -0.042542789 0.85085577
0.0014669927 -0.042542789 0.85085577
0.0029268293 -0.042439025 0.84878051
0.0043902439 -0.042439025 0.84878051
0.0058536585 -0.042439025 0.84878051
0.0073349634 -0.042542789 0.85085577
0.0088019557 -0.042542789 0.85085577
0.010268949 -0.042542789 0.85085577
0.011707317 -0.042439025 0.84878051
0.013202934 -0.042542789 0.85085577
0.014669927 -0.042542789 0.85085577
0.01613692 -0.042542789 0.85085577
0.017560976 -0.042439025 0.84878051
0.019024391 -0.042439025 0.84878051
0.020487804 -0.042439025 0.84878051
0.022004889 -0.042542789 0.85085577
0.023471883 -0.042542789 0.85085577
0.024938876 -0.042542789 0.85085577
0.026405867 -0.042542789 0.85085577
0.02787286 -0.042542789 0.85085577
0.029339854 -0.042542789 0.85085577
0.030806845 -0.042542789 0.85085577
0.03227384 -0.042542789 0.85085577
0.03374083 -0.042542789 0.85085577
0.035207823 -0.042542789 0.85085577
0.036764707 -0.04264706 0.85294116
0.038141809 -0.042542789 0.85085577
0.039608803 -0.042542789 0.85085577
0.040975608 -0.042439025 0.84878051
0.042439025 -0.042439025 0.84878051
0.044117648 -0.04264706 0.85294116
0.045588236 -0.04264706 0.85294116
0.046943765 -0.042542789 0.85085577
0.048410758 -0.042542789 0.85085577
0.050000001 -0.04264706 0.85294116
0.051470589 -0.04264706 0.85294116
0.052811734 -0.042542789 0.85085577
0.054545455 -0.042751841 0.85503685
0.055882353 -0.04264706 0.85294116
0.057352941 -0.04264706 0.85294116
0.05882353 -0.04264706 0.85294116
0.060591131 -0.042857144 0.85714287
0.061764706 -0.04264706 0.85294116
0.063235298 -0.04264706 0.85294116
0.064705886 -0.04264706 0.85294116
0.066176474 -0.04264706 0.85294116
0.067481659 -0.042542789 0.85085577
0.068948656 -0.042542789 0.85085577
0.070415646 -0.042542789 0.85085577
0.071882643 -0.042542789 0.85085577
0.073529415 -0.04264706 0.85294116
0.07463415 -0.042439025 0.84878051
0.076097563 -0.042439025 0.84878051
0.078132682 -0.042751841 0.85503685
0.079024389 -0.042439025 0.84878051
0.080487803 -0.042439025 0.84878051
0.081951216 -0.042439025 0.84878051
0.083414637 -0.042439025 0.84878051
0.085085578 -0.042542789 0.85085577
0.086552568 -0.042542789 0.85085577
0.088235296 -0.04264706 0.85294116
0.089705884 -0.04264706 0.85294116
0.091176473 -0.04264706 0.85294116
0.092647061 -0.04264706 0.85294116
0.09388753 -0.042542789 0.85085577
0.09535452 -0.042542789 0.85085577
0.096585363 -0.042439025 0.84878051
0.098048784 -0.042439025 0.84878051
0.099512197 -0.042439025 0.84878051
0.10122249 -0.042542789 0.85085577
0.10268949 -0.042542789 0.85085577
0.10390244 -0.042439025 0.84878051
0.10536585 -0.042439025 0.84878051
0.10709047 -0.042542789 0.85085577
0.10829268 -0.042439025 0.84878051
0.10948905 -0.042335767 0.84671533
0.11094891 -0.042335767 0.84671533
0.11240876 -0.042335767 0.84671533
0.11414634 -0.042439025 0.84878051
0.11560976 -0.042439025 0.84878051
0.11650486 -0.042233009 0.84466022
0.11796117 -0.042233009 0.84466022
0.11970803 -0.042335767 0.84671533
0.12116788 -0.042335767 0.84671533
0.1223301 -0.042233009 0.84466022
0.1237864 -0.042233009 0.84466022
0.12554744 -0.042335767 0.84671533
0.12700731 -0.042335767 0.84671533
0.12846716 -0.042335767 0.84671533
0.12992701 -0.042335767 0.84671533
0.13106796 -0.042233009 0.84466022
0.13252427 -0.042233009 0.84466022
0.13398059 -0.042233009 0.84466022
0.13543689 -0.042233009 0.84466022
0.1368932 -0.042233009 0.84466022
0.13801453 -0.04213075 0.84261501
0.13946731 -0.04213075 0.84261501
0.1409201 -0.04213075 0.84261501
0.14271845 -0.042233009 0.84466022
0.14382567 -0.04213075 0.84261501
0.14527845 -0.04213075 0.84261501
0.14673123 -0.04213075 0.84261501
0.14818402 -0.04213075 0.84261501
0.14963681 -0.04213075 0.84261501
0.15108959 -0.04213075 0.84261501
0.15254237 -0.04213075 0.84261501
0.15399516 -0.04213075 0.84261501
0.15544794 -0.04213075 0.84261501
0.15728155 -0.042233009 0.84466022
0.15797101 -0.042028986 0.84057969
0.1594203 -0.042028986 0.84057969
0.16125908 -0.04213075 0.84261501
0.16271186 -0.04213075 0.84261501
0.16416465 -0.04213075 0.84261501
0.16561744 -0.04213075 0.84261501
0.16707022 -0.04213075 0.84261501
0.168523 -0.04213075 0.84261501
0.16997579 -0.04213075 0.84261501
0.17142858 -0.04213075 0.84261501
0.17288135 -0.04213075 0.84261501
0.17433414 -0.04213075 0.84261501
0.17578693 -0.04213075 0.84261501
0.17723972 -0.04213075 0.84261501
0.17869249 -0.04213075 0.84261501
0.18058252 -0.042233009 0.84466022
0.18203883 -0.042233009 0.84466022
0.18349515 -0.042233009 0.84466022
0.18495145 -0.042233009 0.84466022
0.18686131 -0.042335767 0.84671533
0.18786408 -0.042233009 0.84466022
0.18932039 -0.042233009 0.84466022
0.19077671 -0.042233009 0.84466022
0.19223301 -0.042233009 0.84466022
0.19368932 -0.042233009 0.84466022
0.19514564 -0.042233009 0.84466022
0.1970803 -0.042335767 0.84671533
0.19854015 -0.042335767 0.84671533
0.20048781 -0.042439025 0.84878051
0.20244499 -0.042542789 0.85085577
0.20391198 -0.042542789 0.85085577
0.20537898 -0.042542789 0.85085577
0.20684597 -0.042542789 0.85085577
0.20831296 -0.042542789 0.85085577
0.21029411 -0.04264706 0.85294116
0.21176471 -0.04264706 0.85294116
0.21323529 -0.04264706 0.85294116
0.21523342 -0.042751841 0.85503685
0.21670762 -0.042751841 0.85503685
0.21925926 -0.042962965 0.85925925
0.22074074 -0.042962965 0.85925925
0.22222222 -0.042962965 0.85925925
0.2237037 -0.042962965 0.85925925
0.22518519 -0.042962965 0.85925925
0.22722772 -0.043069307 0.86138612
0.22871287 -0.043069307 0.86138612
0.23076923 -0.043176178 0.8635236
0.23225807 -0.043176178 0.8635236
0.23491272 -0.043391522 0.8678304
0.237 -0.043499999 0.87
0.2385 -0.043499999 0.87
0.23999999 -0.043499999 0.87
0.24271357 -0.043718591 0.87437189
0.24422111 -0.043718591 0.87437189
0.2469697 -0.043939393 0.87878788
0.24974619 -0.044162437 0.88324875
0.25126904 -0.044162437 0.88324875
0.25343511 -0.044274811 0.8854962
0.25496182 -0.044274811 0.8854962
0.25648856 -0.044274811 0.8854962
-0.097127937 -0.043864232 0.90861619
-0.095561355 -0.043864232 0.90861619
-0.093994781 -0.043864232 0.90861619
-0.0924282 -0.043864232 0.90861619
-0.090625003 -0.043749999 0.90625
-0.088601038 -0.043523315 0.90155441
-0.086821705 -0.043410853 0.89922482
-0.085271321 -0.043410853 0.89922482
-0.083505154 -0.043298971 0.89690721
-0.081122451 -0.042857144 0.8877551
-0.079591833 -0.042857144 0.8877551
-0.078061223 -0.042857144 0.8877551
-0.076335877 -0.04274809 0.8854962
-0.074809164 -0.04274809 0.8854962
-0.073096447 -0.042639595 0.88324875
-0.07121212 -0.042424243 0.87878788
-0.06969697 -0.042424243 0.87878788
-0.068010077 -0.042317379 0.87657428
-0.066331655 -0.042211056 0.87437189
-0.064824119 -0.042211056 0.87437189
-0.063316584 -0.042211056 0.87437189
-0.061654136 -0.042105265 0.87218046
-0.060150377 -0.042105265 0.87218046
-0.058499999 -0.041999999 0.87
-0.057 -0.041999999 0.87
-0.055361595 -0.041895263 0.8678304
-0.053865336 -0.041895263 0.8678304
-0.052238807 -0.041791044 0.86567163
-0.05074627 -0.041791044 0.86567163
-0.049131513 -0.041687343 0.8635236
-0.047642682 -0.041687343 0.8635236
-0.046153847 -0.041687343 0.8635236
-0.044665013 -0.041687343 0.8635236
-0.043069307 -0.04158416 0.86138612
-0.04158416 -0.04158416 0.86138612
-0.039999999 -0.04148148 0.85925925
-0.038518518 -0.04148148 0.85925925
-0.037037037 -0.04148148 0.85925925
-0.035467979 -0.04137931 0.85714287
-0.033990148 -0.04137931 0.85714287
