# .PCD v0.7 - Point Cloud Data file format
VERSION 0.7
FIELDS x y z
SIZE 4 4 4
TYPE F F F
COUNT 1 1 1
WIDTH 1517
HEIGHT 1
VIEWPOINT 0 0 0 1 0 0 0
POINTS 1517
DATA ascii
-0.22237763 0.26013985 1.2587413
-0.21818182 0.26013985 1.2587413
-0.21250001 0.25833333 1.25
-0.20833333 0.25833333 1.25
-0.20416667 0.25833333 1.25
-0.19862069 0.25655171 1.2413793
-0.19448276 0.25655171 1.2413793
-0.18904109 0.25479451 1.2328767
-0.1849315 0.25479451 1.2328767
-0.18082191 0.25479451 1.2328767
-0.17671233 0.25479451 1.2328767
-0.17260274 0.25479451 1.2328767
-0.16734694 0.25306123 1.2244898
-0.1632653 0.25306123 1.2244898
-0.15810812 0.25135136 1.2162162
-0.15405406 0.25135136 1.2162162
-0.15000001 0.25135136 1.2162162
-0.14594595 0.25135136 1.2162162
-0.1418919 0.25135136 1.2162162
-0.13783784 0.25135136 1.2162162
-0.13378379 0.25135136 1.2162162
-0.12885906 0.24966443 1.2080537
-0.12483221 0.24966443 1.2080537
-0.12080537 0.24966443 1.2080537
-0.11677852 0.24966443 1.2080537
-0.11275168 0.24966443 1.2080537
-0.10872483 0.24966443 1.2080537
-0.10469799 0.24966443 1.2080537
-0.10067114 0.24966443 1.2080537
-0.096644297 0.24966443 1.2080537
-0.092617452 0.24966443 1.2080537
-0.088590607 0.24966443 1.2080537
-0.084563762 0.24966443 1.2080537
-0.080536909 0.24966443 1.2080537
-0.076510064 0.24966443 1.2080537
-0.072483219 0.24966443 1.2080537
-0.068918921 0.25135136 1.2162162
-0.064864866 0.25135136 1.2162162
-0.060810812 0.25135136 1.2162162
-0.056756757 0.25135136 1.2162162
-0.052702703 0.25135136 1.2162162
-0.048648648 0.25135136 1.2162162
0.04265403 0.17630331 0.85308057
0.10945946 0.25135136 1.2162162
0.11351351 0.25135136 1.2162162
0.11756757 0.25135136 1.2162162
0.12162162 0.25135136 1.2162162
0.12567568 0.25135136 1.2162162
0.12885906 0.24966443 1.2080537
0.1328859 0.24966443 1.2080537
0.13691275 0.24966443 1.2080537
0.14093959 0.24966443 1.2080537
0.14304636 0.24635762 1.192053
0.14701986 0.24635762 1.192053
0.15099338 0.24635762 1.192053
0.15394737 0.24473684 1.1842105
0.15789473 0.24473684 1.1842105
0.16184211 0.24473684 1.1842105
0.16578947 0.24473684 1.1842105
0.16973685 0.24473684 1.1842105
0.17254902 0.24313726 1.1764706
0.17647059 0.24313726 1.1764706
0.18039216 0.24313726 1.1764706
0.18311688 0.24155845 1.1688311
0.18701299 0.24155845 1.1688311
0.19090909 0.24155845 1.1688311
0.19480519 0.24155845 1.1688311
0.19741936 0.23999999 1.1612903
0.20129032 0.23999999 1.1612903
0.20516129 0.23999999 1.1612903
0.20903225 0.23999999 1.1612903
0.21290323 0.23999999 1.1612903
0.21538462 0.23846154 1.1538461
0.21923077 0.23846154 1.1538461
0.22165605 0.23694268 1.1464968
0.22547771 0.23694268 1.1464968
0.22929937 0.23694268 1.1464968
0.23461539 0.23846154 1.1538461
0.23544304 0.23544304 1.1392405
0.23924051 0.23544304 1.1392405
0.24303797 0.23544304 1.1392405
0.24683544 0.23544304 1.1392405
0.24905661 0.23396227 1.1320754
0.25283018 0.23396227 1.1320754
0.25660378 0.23396227 1.1320754
0.26037735 0.23396227 1.1320754
0.26415095 0.23396227 1.1320754
0.26792452 0.23396227 1.1320754
0.27000001 0.2325 1.125
0.27375001 0.2325 1.125
0.27577639 0.2310559 1.1180124
0.27950311 0.2310559 1.1180124
0.28322983 0.2310559 1.1180124
0.28695652 0.2310559 1.1180124
0.2888889 0.22962964 1.1111112
0.29259259 0.22962964 1.1111112
0.2962963 0.22962964 1.1111112
0.30000001 0.22962964 1.1111112
0.3037037 0.22962964 1.1111112
0.30552146 0.22822087 1.1042944
0.30920246 0.22822087 1.1042944
0.31288344 0.22822087 1.1042944
0.31463414 0.22682928 1.097561
0.31829268 0.22682928 1.097561
0.32195121 0.22682928 1.097561
0.32560974 0.22682928 1.097561
0.32727271 0.22545454 1.0909091
0.3309091 0.22545454 1.0909091
0.33454546 0.22545454 1.0909091
0.33818182 0.22545454 1.0909091
0.33975902 0.22409639 1.0843374
0.34337351 0.22409639 1.0843374
0.34698796 0.22409639 1.0843374
0.34850299 0.22275449 1.0778443
0.35209581 0.22275449 1.0778443
0.35568863 0.22275449 1.0778443
0.35714287 0.22142857 1.0714285
0.36071429 0.22142857 1.0714285
0.36428571 0.22142857 1.0714285
0.36785713 0.22142857 1.0714285
0.36923078 0.22011834 1.0650887
0.37278107 0.22011834 1.0650887
0.37633136 0.22011834 1.0650887
0.37764707 0.21882352 1.0588236
0.38117647 0.21882352 1.0588236
0.38470587 0.21882352 1.0588236
0.3882353 0.21882352 1.0588236
0.3917647 0.21882352 1.0588236
0.39529413 0.21882352 1.0588236
-0.29090908 0.28636363 1.3636364
-0.28636363 0.28636363 1.3636364
-0.28181818 0.28636363 1.3636364
-0.27727273 0.28636363 1.3636364
-0.25899279 0.27194244 1.2949641
-0.25467625 0.27194244 1.2949641
-0.25035971 0.27194244 1.2949641
-0.24604316 0.27194244 1.2949641
-0.23999999 0.27000001 1.2857143
-0.23076923 0.26433566 1.2587413
-0.22657342 0.26433566 1.2587413
-0.22237763 0.26433566 1.2587413
-0.21666667 0.26249999 1.25
-0.21250001 0.26249999 1.25
-0.20689656 0.26068965 1.2413793
-0.20275863 0.26068965 1.2413793
-0.19862069 0.26068965 1.2413793
-0.19448276 0.26068965 1.2413793
-0.18904109 0.2589041 1.2328767
-0.1849315 0.2589041 1.2328767
-0.18082191 0.2589041 1.2328767
-0.17671233 0.2589041 1.2328767
-0.17142858 0.25714287 1.2244898
-0.16734694 0.25714287 1.2244898
-0.16216215 0.2554054 1.2162162
-0.15810812 0.2554054 1.2162162
-0.15405406 0.2554054 1.2162162
-0.15000001 0.2554054 1.2162162
-0.14594595 0.2554054 1.2162162
-0.1418919 0.2554054 1.2162162
-0.13783784 0.2554054 1.2162162
-0.1328859 0.25369129 1.2080537
-0.12885906 0.25369129 1.2080537
-0.12483221 0.25369129 1.2080537
-0.12080537 0.25369129 1.2080537
-0.11677852 0.25369129 1.2080537
-0.11275168 0.25369129 1.2080537
-0.10872483 0.25369129 1.2080537
-0.10469799 0.25369129 1.2080537
-0.10067114 0.25369129 1.2080537
-0.096644297 0.25369129 1.2080537
-0.092617452 0.25369129 1.2080537
-0.088590607 0.25369129 1.2080537
-0.084563762 0.25369129 1.2080537
-0.080536909 0.25369129 1.2080537
-0.076510064 0.25369129 1.2080537
-0.072483219 0.25369129 1.2080537
-0.068456374 0.25369129 1.2080537
-0.064864866 0.2554054 1.2162162
-0.060810812 0.2554054 1.2162162
-0.056756757 0.2554054 1.2162162
-0.052702703 0.2554054 1.2162162
-0.048648648 0.2554054 1.2162162
-0.024870466 0.19585492 0.93264246
-0.015228426 0.19187817 0.91370559
-0.0060000001 0.189 0.89999998
-0.0029850747 0.1880597 0.89552242
0 0.18712871 0.89108908
0.0029556651 0.18620689 0.8866995
0.0058823531 0.18529412 0.88235295
0.011707317 0.18439025 0.87804878
0.014563107 0.18349515 0.87378639
0.017391304 0.18260869 0.86956519
0.020289855 0.18260869 0.86956519
0.025837321 0.18086125 0.86124402
0.036966823 0.17914692 0.85308057
0.039810427 0.17914692 0.85308057
0.04265403 0.17914692 0.85308057
0.04549763 0.17914692 0.85308057
0.048341233 0.17914692 0.85308057
0.10540541 0.2554054 1.2162162
0.10945946 0.2554054 1.2162162
0.11351351 0.2554054 1.2162162
0.11756757 0.2554054 1.2162162
0.12162162 0.2554054 1.2162162
0.12483221 0.25369129 1.2080537
0.12885906 0.25369129 1.2080537
0.1328859 0.25369129 1.2080537
0.13691275 0.25369129 1.2080537
0.13907285 0.25033113 1.192053
0.14304636 0.25033113 1.192053
0.14701986 0.25033113 1.192053
0.15099338 0.25033113 1.192053
0.15394737 0.24868421 1.1842105
0.15789473 0.24868421 1.1842105
0.16184211 0.24868421 1.1842105
0.16578947 0.24868421 1.1842105
0.16862746 0.24705882 1.1764706
0.17254902 0.24705882 1.1764706
0.17647059 0.24705882 1.1764706
0.17922078 0.24545455 1.1688311
0.18311688 0.24545455 1.1688311
0.18701299 0.24545455 1.1688311
0.18967742 0.24387097 1.1612903
0.19354838 0.24387097 1.1612903
0.19741936 0.24387097 1.1612903
0.20129032 0.24387097 1.1612903
0.20384616 0.24230769 1.1538461
0.20903225 0.24387097 1.1612903
0.21153846 0.24230769 1.1538461
0.21538462 0.24230769 1.1538461
0.21923077 0.24230769 1.1538461
0.22165605 0.24076433 1.1464968
0.22547771 0.24076433 1.1464968
0.22929937 0.24076433 1.1464968
0.23312102 0.24076433 1.1464968
0.23544304 0.23924051 1.1392405
0.23924051 0.23924051 1.1392405
0.24303797 0.23924051 1.1392405
0.24683544 0.23924051 1.1392405
0.24905661 0.23773585 1.1320754
0.25283018 0.23773585 1.1320754
0.25660378 0.23773585 1.1320754
0.26037735 0.23773585 1.1320754
0.26415095 0.23773585 1.1320754
0.26625001 0.23625 1.125
0.27000001 0.23625 1.125
0.27375001 0.23625 1.125
0.27577639 0.23478261 1.1180124
0.27950311 0.23478261 1.1180124
0.28322983 0.23478261 1.1180124
0.28695652 0.23478261 1.1180124
0.2888889 0.23333333 1.1111112
0.29259259 0.23333333 1.1111112
0.2962963 0.23333333 1.1111112
0.30000001 0.23333333 1.1111112
0.3037037 0.23333333 1.1111112
0.30740741 0.23333333 1.1111112
0.30920246 0.23190184 1.1042944
0.31288344 0.23190184 1.1042944
0.31463414 0.23048781 1.097561
0.31829268 0.23048781 1.097561
0.32195121 0.23048781 1.097561
0.32560974 0.23048781 1.097561
0.32727271 0.22909091 1.0909091
0.3309091 0.22909091 1.0909091
0.33454546 0.22909091 1.0909091
0.33818182 0.22909091 1.0909091
0.33975902 0.22771084 1.0843374
0.34337351 0.22771084 1.0843374
0.34698796 0.22771084 1.0843374
0.34850299 0.22634731 1.0778443
0.35209581 0.22634731 1.0778443
0.35568863 0.22634731 1.0778443
0.35714287 0.22499999 1.0714285
0.36071429 0.22499999 1.0714285
0.36428571 0.22499999 1.0714285
0.36568049 0.22366863 1.0650887
0.36923078 0.22366863 1.0650887
0.37278107 0.22366863 1.0650887
0.37633136 0.22366863 1.0650887
0.37764707 0.22235294 1.0588236
0.38117647 0.22235294 1.0588236
0.38470587 0.22235294 1.0588236
0.3882353 0.22235294 1.0588236
0.3917647 0.22235294 1.0588236
0.39529413 0.22235294 1.0588236
-0.28181818 0.29090908 1.3636364
-0.25899279 0.27625901 1.2949641
-0.25467625 0.27625901 1.2949641
-0.25035971 0.27625901 1.2949641
-0.24428572 0.2742857 1.2857143
-0.23999999 0.2742857 1.2857143
-0.23239437 0.27042255 1.2676057
-0.22657342 0.26853147 1.2587413
-0.22083333 0.26666668 1.25
-0.21666667 0.26666668 1.25
-0.21103448 0.26482758 1.2413793
-0.20689656 0.26482758 1.2413793
-0.20275863 0.26482758 1.2413793
-0.19726028 0.26301369 1.2328767
-0.19315068 0.26301369 1.2328767
-0.18904109 0.26301369 1.2328767
-0.1849315 0.26301369 1.2328767
-0.17959183 0.26122448 1.2244898
-0.1755102 0.26122448 1.2244898
-0.17142858 0.26122448 1.2244898
-0.16734694 0.26122448 1.2244898
-0.16216215 0.25945947 1.2162162
-0.15810812 0.25945947 1.2162162
-0.15405406 0.25945947 1.2162162
-0.15000001 0.25945947 1.2162162
-0.14594595 0.25945947 1.2162162
-0.14093959 0.25771812 1.2080537
-0.13691275 0.25771812 1.2080537
-0.1328859 0.25771812 1.2080537
-0.12885906 0.25771812 1.2080537
-0.12483221 0.25771812 1.2080537
-0.12080537 0.25771812 1.2080537
-0.11677852 0.25771812 1.2080537
-0.11275168 0.25771812 1.2080537
-0.10872483 0.25771812 1.2080537
-0.10469799 0.25771812 1.2080537
-0.10067114 0.25771812 1.2080537
-0.096644297 0.25771812 1.2080537
-0.092617452 0.25771812 1.2080537
-0.088590607 0.25771812 1.2080537
-0.084563762 0.25771812 1.2080537
-0.080536909 0.25771812 1.2080537
-0.076510064 0.25771812 1.2080537
-0.072483219 0.25771812 1.2080537
-0.068456374 0.25771812 1.2080537
-0.064429529 0.25771812 1.2080537
-0.056756757 0.25945947 1.2162162
-0.031088082 0.19896373 0.93264246
-0.027979275 0.19896373 0.93264246
-0.024870466 0.19896373 0.93264246
-0.021761658 0.19896373 0.93264246
-0.018274112 0.19492386 0.91370559
-0.015228426 0.19492386 0.91370559
-0.012182741 0.19492386 0.91370559
-0.0089999996 0.192 0.89999998
-0.0060000001 0.192 0.89999998
-0.0029850747 0.19104478 0.89552242
0 0.19009902 0.89108908
0.0029556651 0.18916257 0.8866995
0.0058823531 0.1882353 0.88235295
0.0088235298 0.1882353 0.88235295
0.011707317 0.18731707 0.87804878
0.014563107 0.18640776 0.87378639
0.017391304 0.18550725 0.86956519
0.020289855 0.18550725 0.86956519
0.023188407 0.18550725 0.86956519
0.025837321 0.18373206 0.86124402
0.028708134 0.18373206 0.86124402
0.031578947 0.18373206 0.86124402
0.034123223 0.18199052 0.85308057
0.036966823 0.18199052 0.85308057
0.039810427 0.18199052 0.85308057
0.04265403 0.18199052 0.85308057
0.04549763 0.18199052 0.85308057
0.048341233 0.18199052 0.85308057
0.10945946 0.25945947 1.2162162
0.11351351 0.25945947 1.2162162
0.11756757 0.25945947 1.2162162
0.12080537 0.25771812 1.2080537
0.12483221 0.25771812 1.2080537
0.12885906 0.25771812 1.2080537
0.132 0.25600001 1.2
0.13600001 0.25600001 1.2
0.13907285 0.25430465 1.192053
0.14304636 0.25430465 1.192053
0.14701986 0.25430465 1.192053
0.14901961 0.25098041 1.1764706
0.15394737 0.25263157 1.1842105
0.15789473 0.25263157 1.1842105
0.16078432 0.25098041 1.1764706
0.16470589 0.25098041 1.1764706
0.16862746 0.25098041 1.1764706
0.17254902 0.25098041 1.1764706
0.17419355 0.24774194 1.1612903
0.17806451 0.24774194 1.1612903
0.18311688 0.24935065 1.1688311
0.18580645 0.24774194 1.1612903
0.18967742 0.24774194 1.1612903
0.19354838 0.24774194 1.1612903
0.19741936 0.24774194 1.1612903
0.2 0.24615385 1.1538461
0.20384616 0.24615385 1.1538461
0.20769231 0.24615385 1.1538461
0.21153846 0.24615385 1.1538461
0.21538462 0.24615385 1.1538461
0.2178344 0.24458599 1.1464968
0.22165605 0.24458599 1.1464968
0.22547771 0.24458599 1.1464968
0.22929937 0.24458599 1.1464968
0.23018868 0.24150944 1.1320754
0.23396227 0.24150944 1.1320754
0.23924051 0.24303797 1.1392405
0.24303797 0.24303797 1.1392405
0.24683544 0.24303797 1.1392405
0.24905661 0.24150944 1.1320754
0.25283018 0.24150944 1.1320754
0.255 0.23999999 1.125
0.25874999 0.23999999 1.125
0.26249999 0.23999999 1.125
0.26625001 0.23999999 1.125
0.27000001 0.23999999 1.125
0.27375001 0.23999999 1.125
0.27577639 0.23850931 1.1180124
0.27950311 0.23850931 1.1180124
0.28322983 0.23850931 1.1180124
0.28695652 0.23850931 1.1180124
0.2888889 0.23703703 1.1111112
0.29259259 0.23703703 1.1111112
0.2962963 0.23703703 1.1111112
0.30000001 0.23703703 1.1111112
0.3037037 0.23703703 1.1111112
0.30740741 0.23703703 1.1111112
0.30920246 0.23558283 1.1042944
0.31097561 0.23414634 1.097561
0.31463414 0.23414634 1.097561
0.31829268 0.23414634 1.097561
0.32195121 0.23414634 1.097561
0.32560974 0.23414634 1.097561
0.32727271 0.23272727 1.0909091
0.3309091 0.23272727 1.0909091
0.33454546 0.23272727 1.0909091
0.33614457 0.2313253 1.0843374
0.33975902 0.2313253 1.0843374
0.34337351 0.2313253 1.0843374
0.34698796 0.2313253 1.0843374
0.34850299 0.22994012 1.0778443
0.35209581 0.22994012 1.0778443
0.35357141 0.22857143 1.0714285
0.35714287 0.22857143 1.0714285
0.36071429 0.22857143 1.0714285
0.36213017 0.22721894 1.0650887
0.36568049 0.22721894 1.0650887
0.36923078 0.22721894 1.0650887
0.37278107 0.22721894 1.0650887
0.37633136 0.22721894 1.0650887
0.37764707 0.22588235 1.0588236
0.38117647 0.22588235 1.0588236
0.38470587 0.22588235 1.0588236
0.3882353 0.22588235 1.0588236
0.3917647 0.22588235 1.0588236
-0.25899279 0.28057554 1.2949641
-0.25467625 0.28057554 1.2949641
-0.24857143 0.27857143 1.2857143
-0.24428572 0.27857143 1.2857143
-0.23661971 0.27464789 1.2676057
-0.23239437 0.27464789 1.2676057
-0.22499999 0.27083334 1.25
-0.22083333 0.27083334 1.25
-0.21666667 0.27083334 1.25
-0.21103448 0.26896551 1.2413793
-0.20689656 0.26896551 1.2413793
-0.20136987 0.26712328 1.2328767
-0.19726028 0.26712328 1.2328767
-0.19315068 0.26712328 1.2328767
-0.18775511 0.26530612 1.2244898
-0.18367347 0.26530612 1.2244898
-0.17959183 0.26530612 1.2244898
-0.1755102 0.26530612 1.2244898
-0.17142858 0.26530612 1.2244898
-0.16734694 0.26530612 1.2244898
-0.16216215 0.26351351 1.2162162
-0.15810812 0.26351351 1.2162162
-0.15405406 0.26351351 1.2162162
-0.15000001 0.26351351 1.2162162
-0.14496644 0.26174498 1.2080537
-0.14093959 0.26174498 1.2080537
-0.13691275 0.26174498 1.2080537
-0.1328859 0.26174498 1.2080537
-0.12885906 0.26174498 1.2080537
-0.12483221 0.26174498 1.2080537
-0.12080537 0.26174498 1.2080537
-0.11677852 0.26174498 1.2080537
-0.11275168 0.26174498 1.2080537
-0.10872483 0.26174498 1.2080537
-0.10469799 0.26174498 1.2080537
-0.10067114 0.26174498 1.2080537
-0.096644297 0.26174498 1.2080537
-0.092 0.25999999 1.2
-0.088 0.25999999 1.2
-0.084563762 0.26174498 1.2080537
-0.080536909 0.26174498 1.2080537
-0.076510064 0.26174498 1.2080537
-0.072483219 0.26174498 1.2080537
-0.068456374 0.26174498 1.2080537
-0.064429529 0.26174498 1.2080537
-0.034920637 0.20634921 0.95238096
-0.031088082 0.20207255 0.93264246
-0.027979275 0.20207255 0.93264246
-0.024870466 0.20207255 0.93264246
-0.021761658 0.20207255 0.93264246
-0.018274112 0.19796954 0.91370559
-0.015228426 0.19796954 0.91370559
-0.012182741 0.19796954 0.91370559
-0.0089999996 0.19499999 0.89999998
-0.0060000001 0.19499999 0.89999998
-0.0029850747 0.19402985 0.89552242
0 0.19306931 0.89108908
0.0029556651 0.19211823 0.8866995
0.0058823531 0.19117647 0.88235295
0.0088235298 0.19117647 0.88235295
0.011707317 0.1902439 0.87804878
0.014563107 0.18932039 0.87378639
0.017391304 0.1884058 0.86956519
0.020289855 0.1884058 0.86956519
0.023188407 0.1884058 0.86956519
0.025837321 0.18660288 0.86124402
0.028708134 0.18660288 0.86124402
0.031428572 0.18571429 0.85714287
0.034123223 0.18483412 0.85308057
0.036966823 0.18483412 0.85308057
0.039810427 0.18483412 0.85308057
0.04265403 0.18483412 0.85308057
0.04549763 0.18483412 0.85308057
0.048341233 0.18483412 0.85308057
0.050943397 0.18396227 0.8490566
0.108 0.25999999 1.2
0.112 0.25999999 1.2
0.116 0.25999999 1.2
0.12080537 0.26174498 1.2080537
0.124 0.25999999 1.2
0.12715232 0.25827813 1.192053
0.13112582 0.25827813 1.192053
0.13509934 0.25827813 1.192053
0.13907285 0.25827813 1.192053
0.14304636 0.25827813 1.192053
0.14605263 0.25657895 1.1842105
0.14901961 0.25490198 1.1764706
0.15294118 0.25490198 1.1764706
0.15686275 0.25490198 1.1764706
0.16078432 0.25490198 1.1764706
0.16470589 0.25490198 1.1764706
0.16862746 0.25490198 1.1764706
0.17254902 0.25490198 1.1764706
0.17419355 0.2516129 1.1612903
0.17806451 0.2516129 1.1612903
0.18193549 0.2516129 1.1612903
0.18580645 0.2516129 1.1612903
0.18846154 0.25 1.1538461
0.19354838 0.2516129 1.1612903
0.19741936 0.2516129 1.1612903
0.2 0.25 1.1538461
0.20384616 0.25 1.1538461
0.20769231 0.25 1.1538461
0.21153846 0.25 1.1538461
0.21401274 0.24840765 1.1464968
0.2178344 0.24840765 1.1464968
0.22165605 0.24840765 1.1464968
0.22547771 0.24840765 1.1464968
0.2278481 0.24683544 1.1392405
0.23018868 0.24528302 1.1320754
0.23396227 0.24528302 1.1320754
0.23773585 0.24528302 1.1320754
0.24303797 0.24683544 1.1392405
0.24528302 0.24528302 1.1320754
0.24905661 0.24528302 1.1320754
0.25283018 0.24528302 1.1320754
0.255 0.24375001 1.125
0.25874999 0.24375001 1.125
0.26249999 0.24375001 1.125
0.26625001 0.24375001 1.125
0.26832297 0.24223602 1.1180124
0.2720497 0.24223602 1.1180124
0.27577639 0.24223602 1.1180124
0.27950311 0.24223602 1.1180124
0.28148147 0.24074075 1.1111112
0.28518519 0.24074075 1.1111112
0.2888889 0.24074075 1.1111112
0.29259259 0.24074075 1.1111112
0.2962963 0.24074075 1.1111112
0.29815951 0.2392638 1.1042944
0.30184048 0.2392638 1.1042944
0.30552146 0.2392638 1.1042944
0.30920246 0.2392638 1.1042944
0.31097561 0.23780487 1.097561
0.31463414 0.23780487 1.097561
0.31829268 0.23780487 1.097561
0.32195121 0.23780487 1.097561
0.32363635 0.23636363 1.0909091
0.32727271 0.23636363 1.0909091
0.3309091 0.23636363 1.0909091
0.33253011 0.23493975 1.0843374
0.33614457 0.23493975 1.0843374
0.33975902 0.23493975 1.0843374
0.34337351 0.23493975 1.0843374
0.34698796 0.23493975 1.0843374
0.34850299 0.23353294 1.0778443
0.35209581 0.23353294 1.0778443
0.35568863 0.23353294 1.0778443
0.35714287 0.23214285 1.0714285
0.36071429 0.23214285 1.0714285
0.36428571 0.23214285 1.0714285
0.36568049 0.23076923 1.0650887
0.36923078 0.23076923 1.0650887
0.37278107 0.23076923 1.0650887
0.37633136 0.23076923 1.0650887
0.37988165 0.23076923 1.0650887
0.38117647 0.22941177 1.0588236
0.38470587 0.22941177 1.0588236
0.3882353 0.22941177 1.0588236
0.3917647 0.22941177 1.0588236
-0.25106382 0.28085107 1.2765957
-0.24680851 0.28085107 1.2765957
-0.24084507 0.27887323 1.2676057
-0.23661971 0.27887323 1.2676057
-0.23239437 0.27887323 1.2676057
-0.22499999 0.27500001 1.25
-0.22083333 0.27500001 1.25
-0.21517241 0.27310345 1.2413793
-0.21103448 0.27310345 1.2413793
-0.20547946 0.27123287 1.2328767
-0.20136987 0.27123287 1.2328767
-0.19726028 0.27123287 1.2328767
-0.19315068 0.27123287 1.2328767
-0.18775511 0.26938775 1.2244898
-0.18367347 0.26938775 1.2244898
-0.17959183 0.26938775 1.2244898
-0.1755102 0.26938775 1.2244898
-0.17142858 0.26938775 1.2244898
-0.16621621 0.26756757 1.2162162
-0.16216215 0.26756757 1.2162162
-0.15810812 0.26756757 1.2162162
-0.15405406 0.26756757 1.2162162
-0.15000001 0.26756757 1.2162162
-0.14496644 0.26577181 1.2080537
-0.14093959 0.26577181 1.2080537
-0.13691275 0.26577181 1.2080537
-0.1328859 0.26577181 1.2080537
-0.12885906 0.26577181 1.2080537
-0.124 0.264 1.2
-0.12080537 0.26577181 1.2080537
-0.11677852 0.26577181 1.2080537
-0.11275168 0.26577181 1.2080537
-0.10872483 0.26577181 1.2080537
-0.10469799 0.26577181 1.2080537
-0.10067114 0.26577181 1.2080537
-0.096000001 0.264 1.2
-0.092 0.264 1.2
-0.088 0.264 1.2
-0.083999999 0.264 1.2
-0.079999998 0.264 1.2
-0.076510064 0.26577181 1.2080537
-0.072483219 0.26577181 1.2080537
-0.041269843 0.20952381 0.95238096
-0.03809524 0.20952381 0.95238096
-0.034920637 0.20952381 0.95238096
-0.031088082 0.20518135 0.93264246
-0.027979275 0.20518135 0.93264246
-0.024870466 0.20518135 0.93264246
-0.021761658 0.20518135 0.93264246
-0.018274112 0.20101523 0.91370559
-0.015228426 0.20101523 0.91370559
-0.012182741 0.20101523 0.91370559
-0.0089999996 0.198 0.89999998
-0.0060000001 0.198 0.89999998
-0.0029850747 0.19701493 0.89552242
0 0.1960396 0.89108908
0.0029556651 0.19507389 0.8866995
0.0058823531 0.19411765 0.88235295
0.0088235298 0.19411765 0.88235295
0.011707317 0.19317073 0.87804878
0.014563107 0.19223301 0.87378639
0.017391304 0.19130434 0.86956519
0.020289855 0.19130434 0.86956519
0.023188407 0.19130434 0.86956519
0.025837321 0.18947369 0.86124402
0.028708134 0.18947369 0.86124402
0.031428572 0.18857142 0.85714287
0.034123223 0.18767773 0.85308057
0.036966823 0.18767773 0.85308057
0.039810427 0.18767773 0.85308057
0.04265403 0.18767773 0.85308057
0.04528302 0.18679245 0.8490566
0.048113208 0.18679245 0.8490566
0.050943397 0.18679245 0.8490566
0.104 0.264 1.2
0.108 0.264 1.2
0.112 0.264 1.2
0.116 0.264 1.2
0.12 0.264 1.2
0.124 0.264 1.2
0.12715232 0.26225165 1.192053
0.13112582 0.26225165 1.192053
0.13509934 0.26225165 1.192053
0.13907285 0.26225165 1.192053
0.14210527 0.26052633 1.1842105
0.14605263 0.26052633 1.1842105
0.14901961 0.25882354 1.1764706
0.15294118 0.25882354 1.1764706
0.15686275 0.25882354 1.1764706
0.16078432 0.25882354 1.1764706
0.16470589 0.25882354 1.1764706
0.16753247 0.25714287 1.1688311
0.17142858 0.25714287 1.1688311
0.17419355 0.25548387 1.1612903
0.17806451 0.25548387 1.1612903
0.18193549 0.25548387 1.1612903
0.18580645 0.25548387 1.1612903
0.18846154 0.25384617 1.1538461
0.1923077 0.25384617 1.1538461
0.19490446 0.2522293 1.1464968
0.19872612 0.2522293 1.1464968
0.20384616 0.25384617 1.1538461
0.20636943 0.2522293 1.1464968
0.21019109 0.2522293 1.1464968
0.21401274 0.2522293 1.1464968
0.2164557 0.25063291 1.1392405
0.22025317 0.25063291 1.1392405
0.22405063 0.25063291 1.1392405
0.2278481 0.25063291 1.1392405
0.23018868 0.24905661 1.1320754
0.23396227 0.24905661 1.1320754
0.23773585 0.24905661 1.1320754
0.24150944 0.24905661 1.1320754
0.24528302 0.24905661 1.1320754
0.24905661 0.24905661 1.1320754
0.25283018 0.24905661 1.1320754
0.255 0.2475 1.125
0.25874999 0.2475 1.125
0.26249999 0.2475 1.125
0.26625001 0.2475 1.125
0.26832297 0.24596274 1.1180124
0.2720497 0.24596274 1.1180124
0.27577639 0.24596274 1.1180124
0.27950311 0.24596274 1.1180124
0.28148147 0.24444444 1.1111112
0.28518519 0.24444444 1.1111112
0.2888889 0.24444444 1.1111112
0.29259259 0.24444444 1.1111112
0.29447854 0.24294479 1.1042944
0.29815951 0.24294479 1.1042944
0.30184048 0.24294479 1.1042944
0.30552146 0.24294479 1.1042944
0.30920246 0.24294479 1.1042944
0.31097561 0.24146341 1.097561
0.31463414 0.24146341 1.097561
0.31829268 0.24146341 1.097561
0.32195121 0.24146341 1.097561
0.32363635 0.23999999 1.0909091
0.32727271 0.23999999 1.0909091
0.3309091 0.23999999 1.0909091
0.33454546 0.23999999 1.0909091
0.33614457 0.23855421 1.0843374
0.33975902 0.23855421 1.0843374
0.34337351 0.23855421 1.0843374
0.34698796 0.23855421 1.0843374
0.34850299 0.23712575 1.0778443
0.35209581 0.23712575 1.0778443
0.35568863 0.23712575 1.0778443
0.35714287 0.23571429 1.0714285
0.36071429 0.23571429 1.0714285
0.36428571 0.23571429 1.0714285
0.36568049 0.23431952 1.0650887
0.36923078 0.23431952 1.0650887
0.37278107 0.23431952 1.0650887
0.37633136 0.23431952 1.0650887
0.37988165 0.23431952 1.0650887
0.38343194 0.23431952 1.0650887
0.38698226 0.23431952 1.0650887
-0.25531915 0.28510639 1.2765957
-0.25106382 0.28510639 1.2765957
-0.24680851 0.28510639 1.2765957
-0.24255319 0.28510639 1.2765957
-0.23661971 0.28309858 1.2676057
-0.23076923 0.28111887 1.2587413
-0.22499999 0.27916667 1.25
-0.21931034 0.27724138 1.2413793
-0.21517241 0.27724138 1.2413793
-0.21103448 0.27724138 1.2413793
-0.20547946 0.27534246 1.2328767
-0.20136987 0.27534246 1.2328767
-0.19726028 0.27534246 1.2328767
-0.19315068 0.27534246 1.2328767
-0.18775511 0.27346939 1.2244898
-0.18367347 0.27346939 1.2244898
-0.17959183 0.27346939 1.2244898
-0.1755102 0.27346939 1.2244898
-0.17027026 0.27162161 1.2162162
-0.16621621 0.27162161 1.2162162
-0.16216215 0.27162161 1.2162162
-0.15810812 0.27162161 1.2162162
-0.15405406 0.27162161 1.2162162
-0.14899328 0.26979867 1.2080537
-0.14496644 0.26979867 1.2080537
-0.14093959 0.26979867 1.2080537
-0.13691275 0.26979867 1.2080537
-0.1328859 0.26979867 1.2080537
-0.12885906 0.26979867 1.2080537
-0.124 0.26800001 1.2
-0.12 0.26800001 1.2
-0.11677852 0.26979867 1.2080537
-0.11275168 0.26979867 1.2080537
-0.10872483 0.26979867 1.2080537
-0.104 0.26800001 1.2
-0.1 0.26800001 1.2
-0.096000001 0.26800001 1.2
-0.092 0.26800001 1.2
-0.088 0.26800001 1.2
-0.083999999 0.26800001 1.2
-0.079999998 0.26800001 1.2
-0.075999998 0.26800001 1.2
-0.071999997 0.26800001 1.2
-0.041269843 0.21269841 0.95238096
-0.03809524 0.21269841 0.95238096
-0.034920637 0.21269841 0.95238096
-0.031413611 0.2104712 0.94240838
-0.027979275 0.20829016 0.93264246
-0.024870466 0.20829016 0.93264246
-0.021428572 0.20510204 0.91836733
-0.018367346 0.20510204 0.91836733
-0.015228426 0.20406091 0.91370559
-0.012121212 0.2030303 0.90909094
-0.0090909088 0.2030303 0.90909094
-0.0060000001 0.20100001 0.89999998
-0.0029850747 0.2 0.89552242
0 0.1990099 0.89108908
0.0029556651 0.19802956 0.8866995
0.0058823531 0.19705883 0.88235295
0.008737864 0.19514564 0.87378639
0.011650485 0.19514564 0.87378639
0.014563107 0.19514564 0.87378639
0.017391304 0.1942029 0.86956519
0.020289855 0.1942029 0.86956519
0.023188407 0.1942029 0.86956519
0.025837321 0.1923445 0.86124402
0.028571429 0.19142857 0.85714287
0.031428572 0.19142857 0.85714287
0.034123223 0.19052133 0.85308057
0.036966823 0.19052133 0.85308057
0.039810427 0.19052133 0.85308057
0.042452831 0.18962264 0.8490566
0.04528302 0.18962264 0.8490566
0.048113208 0.18962264 0.8490566
0.050943397 0.18962264 0.8490566
0.053271029 0.18785046 0.84112149
0.056074765 0.18785046 0.84112149
0.108 0.26800001 1.2
0.112 0.26800001 1.2
0.116 0.26800001 1.2
0.12 0.26800001 1.2
0.124 0.26800001 1.2
0.12715232 0.26622516 1.192053
0.13112582 0.26622516 1.192053
0.13509934 0.26622516 1.192053
0.13815789 0.26447368 1.1842105
0.14210527 0.26447368 1.1842105
0.14605263 0.26447368 1.1842105
0.14901961 0.26274511 1.1764706
0.15294118 0.26274511 1.1764706
0.15686275 0.26274511 1.1764706
0.15974025 0.26103896 1.1688311
0.16363636 0.26103896 1.1688311
0.16753247 0.26103896 1.1688311
0.17142858 0.26103896 1.1688311
0.17419355 0.25935483 1.1612903
0.17806451 0.25935483 1.1612903
0.18193549 0.25935483 1.1612903
0.18461539 0.25769231 1.1538461
0.18846154 0.25769231 1.1538461
0.19108281 0.25605094 1.1464968
0.19490446 0.25605094 1.1464968
0.19872612 0.25605094 1.1464968
0.20254777 0.25605094 1.1464968
0.20636943 0.25605094 1.1464968
0.21019109 0.25605094 1.1464968
0.21401274 0.25605094 1.1464968
0.2164557 0.25443038 1.1392405
0.22025317 0.25443038 1.1392405
0.22405063 0.25443038 1.1392405
0.2278481 0.25443038 1.1392405
0.23164557 0.25443038 1.1392405
0.23396227 0.25283018 1.1320754
0.23773585 0.25283018 1.1320754
0.24150944 0.25283018 1.1320754
0.24528302 0.25283018 1.1320754
0.24905661 0.25283018 1.1320754
0.25125 0.25125 1.125
0.255 0.25125 1.125
0.25874999 0.25125 1.125
0.26249999 0.25125 1.125
0.26459628 0.24968944 1.1180124
0.26832297 0.24968944 1.1180124
0.2720497 0.24968944 1.1180124
0.27577639 0.24968944 1.1180124
0.27950311 0.24968944 1.1180124
0.28148147 0.24814814 1.1111112
0.28518519 0.24814814 1.1111112
0.2888889 0.24814814 1.1111112
0.29259259 0.24814814 1.1111112
0.2962963 0.24814814 1.1111112
0.29815951 0.24662577 1.1042944
0.30184048 0.24662577 1.1042944
0.30552146 0.24662577 1.1042944
0.30920246 0.24662577 1.1042944
0.31097561 0.24512196 1.097561
0.31463414 0.24512196 1.097561
0.31829268 0.24512196 1.097561
0.32195121 0.24512196 1.097561
0.32363635 0.24363637 1.0909091
0.32727271 0.24363637 1.0909091
0.3309091 0.24363637 1.0909091
0.33454546 0.24363637 1.0909091
0.33614457 0.24216868 1.0843374
0.33975902 0.24216868 1.0843374
0.34337351 0.24216868 1.0843374
0.34491017 0.24071856 1.0778443
0.34850299 0.24071856 1.0778443
0.35209581 0.24071856 1.0778443
0.35568863 0.24071856 1.0778443
0.35714287 0.23928571 1.0714285
0.36071429 0.23928571 1.0714285
0.36428571 0.23928571 1.0714285
0.36568049 0.23786983 1.0650887
0.36923078 0.23786983 1.0650887
0.37278107 0.23786983 1.0650887
0.37633136 0.23786983 1.0650887
0.37988165 0.23786983 1.0650887
0.38343194 0.23786983 1.0650887
0.38698226 0.23786983 1.0650887
-0.25106382 0.28936172 1.2765957
-0.24680851 0.28936172 1.2765957
-0.24255319 0.28936172 1.2765957
-0.23829788 0.28936172 1.2765957
-0.23076923 0.28531468 1.2587413
-0.22499999 0.28333333 1.25
-0.21931034 0.28137931 1.2413793
-0.21517241 0.28137931 1.2413793
-0.21103448 0.28137931 1.2413793
-0.20547946 0.27945206 1.2328767
-0.20136987 0.27945206 1.2328767
-0.19726028 0.27945206 1.2328767
-0.19315068 0.27945206 1.2328767
-0.18775511 0.27755103 1.2244898
-0.18367347 0.27755103 1.2244898
-0.17959183 0.27755103 1.2244898
-0.17432432 0.27567568 1.2162162
-0.17027026 0.27567568 1.2162162
-0.16621621 0.27567568 1.2162162
-0.16216215 0.27567568 1.2162162
-0.15810812 0.27567568 1.2162162
-0.15302013 0.2738255 1.2080537
-0.14899328 0.2738255 1.2080537
-0.14496644 0.2738255 1.2080537
-0.14093959 0.2738255 1.2080537
-0.13691275 0.2738255 1.2080537
-0.1328859 0.2738255 1.2080537
-0.12885906 0.2738255 1.2080537
-0.124 0.27200001 1.2
-0.12 0.27200001 1.2
-0.116 0.27200001 1.2
-0.112 0.27200001 1.2
-0.108 0.27200001 1.2
-0.104 0.27200001 1.2
-0.1 0.27200001 1.2
-0.096000001 0.27200001 1.2
-0.092 0.27200001 1.2
-0.088 0.27200001 1.2
-0.083999999 0.27200001 1.2
-0.079999998 0.27200001 1.2
-0.075999998 0.27200001 1.2
-0.044444446 0.21587302 0.95238096
-0.041269843 0.21587302 0.95238096
-0.03809524 0.21587302 0.95238096
-0.034920637 0.21587302 0.95238096
-0.031413611 0.21361257 0.94240838
-0.028272251 0.21361257 0.94240838
-0.024870466 0.21139896 0.93264246
-0.021761658 0.21139896 0.93264246
-0.018367346 0.20816326 0.91836733
-0.015228426 0.20710661 0.91370559
-0.012121212 0.2060606 0.90909094
-0.0089999996 0.204 0.89999998
-0.0060000001 0.204 0.89999998
-0.0029850747 0.20298508 0.89552242
0 0.20298508 0.89552242
0.0029556651 0.20098522 0.8866995
0.0059113302 0.20098522 0.8866995
0.0088235298 0.2 0.88235295
0.011650485 0.19805825 0.87378639
0.014563107 0.19805825 0.87378639
0.017307693 0.19615385 0.86538464
0.020192308 0.19615385 0.86538464
0.023076924 0.19615385 0.86538464
0.025714286 0.19428572 0.85714287
0.028571429 0.19428572 0.85714287
0.031428572 0.19428572 0.85714287
0.034123223 0.19336493 0.85308057
0.036966823 0.19336493 0.85308057
0.039810427 0.19336493 0.85308057
0.042452831 0.19245283 0.8490566
0.04528302 0.19245283 0.8490566
0.048113208 0.19245283 0.8490566
0.05046729 0.1906542 0.84112149
0.053271029 0.1906542 0.84112149
0.056074765 0.1906542 0.84112149
0.05860465 0.18976744 0.83720928
0.066359445 0.18801843 0.82949311
0.108 0.27200001 1.2
0.112 0.27200001 1.2
0.116 0.27200001 1.2
0.12 0.27200001 1.2
0.124 0.27200001 1.2
0.12715232 0.27019867 1.192053
0.13112582 0.27019867 1.192053
0.13509934 0.27019867 1.192053
0.13815789 0.26842105 1.1842105
0.14117648 0.26666668 1.1764706
0.14509805 0.26666668 1.1764706
0.14901961 0.26666668 1.1764706
0.15194805 0.26493508 1.1688311
0.15584415 0.26493508 1.1688311
0.15974025 0.26493508 1.1688311
0.16363636 0.26493508 1.1688311
0.16753247 0.26493508 1.1688311
0.17032258 0.26322579 1.1612903
0.17419355 0.26322579 1.1612903
0.17692308 0.26153848 1.1538461
0.18076923 0.26153848 1.1538461
0.18461539 0.26153848 1.1538461
0.18726115 0.25987262 1.1464968
0.19108281 0.25987262 1.1464968
0.19490446 0.25987262 1.1464968
0.19872612 0.25987262 1.1464968
0.20254777 0.25987262 1.1464968
0.20636943 0.25987262 1.1464968
0.20886075 0.25822785 1.1392405
0.21265823 0.25822785 1.1392405
0.2164557 0.25822785 1.1392405
0.22025317 0.25822785 1.1392405
0.22264151 0.25660378 1.1320754
0.2278481 0.25822785 1.1392405
0.23164557 0.25822785 1.1392405
0.23396227 0.25660378 1.1320754
0.23773585 0.25660378 1.1320754
0.24150944 0.25660378 1.1320754
0.24528302 0.25660378 1.1320754
0.2475 0.255 1.125
0.25125 0.255 1.125
0.255 0.255 1.125
0.25874999 0.255 1.125
0.26086956 0.25341615 1.1180124
0.26459628 0.25341615 1.1180124
0.26832297 0.25341615 1.1180124
0.2720497 0.25341615 1.1180124
0.27577639 0.25341615 1.1180124
0.27777779 0.25185186 1.1111112
0.28148147 0.25185186 1.1111112
0.28518519 0.25185186 1.1111112
0.2888889 0.25185186 1.1111112
0.29259259 0.25185186 1.1111112
0.2962963 0.25185186 1.1111112
0.29815951 0.25030676 1.1042944
0.30184048 0.25030676 1.1042944
0.30552146 0.25030676 1.1042944
0.30731708 0.24878049 1.097561
0.31097561 0.24878049 1.097561
0.31463414 0.24878049 1.097561
0.31829268 0.24878049 1.097561
0.32195121 0.24878049 1.097561
0.32363635 0.24727273 1.0909091
0.32727271 0.24727273 1.0909091
0.3309091 0.24727273 1.0909091
0.33253011 0.24578314 1.0843374
0.33614457 0.24578314 1.0843374
0.33975902 0.24578314 1.0843374
0.34337351 0.24578314 1.0843374
0.34491017 0.24431138 1.0778443
0.34850299 0.24431138 1.0778443
0.35209581 0.24431138 1.0778443
0.35568863 0.24431138 1.0778443
0.35714287 0.24285714 1.0714285
0.36071429 0.24285714 1.0714285
0.36428571 0.24285714 1.0714285
0.36785713 0.24285714 1.0714285
0.37142858 0.24285714 1.0714285
0.37278107 0.24142012 1.0650887
0.37633136 0.24142012 1.0650887
0.37988165 0.24142012 1.0650887
0.38343194 0.24142012 1.0650887
0.38698226 0.24142012 1.0650887
0.39053255 0.24142012 1.0650887
-0.25531915 0.29361701 1.2765957
-0.24929577 0.2915493 1.2676057
-0.24507043 0.2915493 1.2676057
-0.24084507 0.2915493 1.2676057
-0.23496504 0.28951049 1.2587413
-0.22758621 0.28551725 1.2413793
-0.22344828 0.28551725 1.2413793
-0.21931034 0.28551725 1.2413793
-0.21517241 0.28551725 1.2413793
-0.20958903 0.28356165 1.2328767
-0.20547946 0.28356165 1.2328767
-0.20136987 0.28356165 1.2328767
-0.19591837 0.28163266 1.2244898
-0.19183673 0.28163266 1.2244898
-0.18775511 0.28163266 1.2244898
-0.18367347 0.28163266 1.2244898
-0.17959183 0.28163266 1.2244898
-0.17432432 0.27972972 1.2162162
-0.17027026 0.27972972 1.2162162
-0.16621621 0.27972972 1.2162162
-0.16216215 0.27972972 1.2162162
-0.15810812 0.27972972 1.2162162
-0.15302013 0.27785236 1.2080537
-0.14899328 0.27785236 1.2080537
-0.14496644 0.27785236 1.2080537
-0.14093959 0.27785236 1.2080537
-0.13691275 0.27785236 1.2080537
-0.1328859 0.27785236 1.2080537
-0.12800001 0.27599999 1.2
-0.124 0.27599999 1.2
-0.12 0.27599999 1.2
-0.116 0.27599999 1.2
-0.112 0.27599999 1.2
-0.108 0.27599999 1.2
-0.104 0.27599999 1.2
-0.1 0.27599999 1.2
-0.096000001 0.27599999 1.2
-0.092 0.27599999 1.2
-0.088 0.27599999 1.2
-0.083999999 0.27599999 1.2
-0.079470202 0.27417219 1.192053
-0.075496688 0.27417219 1.192053
-0.041269843 0.21904762 0.95238096
-0.03809524 0.21904762 0.95238096
-0.034920637 0.21904762 0.95238096
-0.031413611 0.21675393 0.94240838
-0.028272251 0.21675393 0.94240838
-0.024870466 0.21450777 0.93264246
-0.021649485 0.21340206 0.92783505
-0.018461538 0.21230769 0.92307693
-0.015228426 0.21015228 0.91370559
-0.012182741 0.21015228 0.91370559
-0.0089999996 0.207 0.89999998
-0.0060000001 0.207 0.89999998
-0.0029850747 0.20597015 0.89552242
0 0.20597015 0.89552242
0.0029556651 0.20394088 0.8866995
0.0058823531 0.20294118 0.88235295
0.0088235298 0.20294118 0.88235295
0.011764706 0.20294118 0.88235295
0.014492754 0.2 0.86956519
0.017391304 0.2 0.86956519
0.020192308 0.19903846 0.86538464
0.022966508 0.19808613 0.86124402
0.025837321 0.19808613 0.86124402
0.028571429 0.19714285 0.85714287
0.03127962 0.19620854 0.85308057
0.034123223 0.19620854 0.85308057
0.036966823 0.19620854 0.85308057
0.03943662 0.1943662 0.84507042
0.04225352 0.1943662 0.84507042
0.045070421 0.1943662 0.84507042
0.047663551 0.19345795 0.84112149
0.05046729 0.19345795 0.84112149
0.053271029 0.19345795 0.84112149
0.055813953 0.19255814 0.83720928
0.058333334 0.19166666 0.83333331
0.061111111 0.19166666 0.83333331
0.063594468 0.19078341 0.82949311
0.066359445 0.19078341 0.82949311
0.069124423 0.19078341 0.82949311
0.0718894 0.19078341 0.82949311
0.116 0.27599999 1.2
0.12 0.27599999 1.2
0.12317881 0.27417219 1.192053
0.12715232 0.27417219 1.192053
0.13112582 0.27417219 1.192053
0.13509934 0.27417219 1.192053
0.13725491 0.27058825 1.1764706
0.14117648 0.27058825 1.1764706
0.14509805 0.27058825 1.1764706
0.14805195 0.26883116 1.1688311
0.15194805 0.26883116 1.1688311
0.15584415 0.26883116 1.1688311
0.15974025 0.26883116 1.1688311
0.16363636 0.26883116 1.1688311
0.16645162 0.26709679 1.1612903
0.17032258 0.26709679 1.1612903
0.17307693 0.26538461 1.1538461
0.17692308 0.26538461 1.1538461
0.18076923 0.26538461 1.1538461
0.18343949 0.26369426 1.1464968
0.18726115 0.26369426 1.1464968
0.19108281 0.26369426 1.1464968
0.19490446 0.26369426 1.1464968
0.19872612 0.26369426 1.1464968
0.20254777 0.26369426 1.1464968
0.20636943 0.26369426 1.1464968
0.20886075 0.26202533 1.1392405
0.21265823 0.26202533 1.1392405
0.2164557 0.26202533 1.1392405
0.21886793 0.26037735 1.1320754
0.22264151 0.26037735 1.1320754
0.2264151 0.26037735 1.1320754
0.23018868 0.26037735 1.1320754
0.23396227 0.26037735 1.1320754
0.23773585 0.26037735 1.1320754
0.23999999 0.25874999 1.125
0.24375001 0.25874999 1.125
0.2475 0.25874999 1.125
0.25125 0.25874999 1.125
0.25341615 0.25714287 1.1180124
0.25714287 0.25714287 1.1180124
0.26086956 0.25714287 1.1180124
0.26459628 0.25714287 1.1180124
0.26832297 0.25714287 1.1180124
0.2720497 0.25714287 1.1180124
0.27577639 0.25714287 1.1180124
0.27950311 0.25714287 1.1180124
0.28148147 0.25555557 1.1111112
0.28518519 0.25555557 1.1111112
0.2888889 0.25555557 1.1111112
0.29259259 0.25555557 1.1111112
0.29447854 0.25398773 1.1042944
0.29815951 0.25398773 1.1042944
0.30184048 0.25398773 1.1042944
0.30552146 0.25398773 1.1042944
0.30920246 0.25398773 1.1042944
0.31097561 0.25243902 1.097561
0.31463414 0.25243902 1.097561
0.31829268 0.25243902 1.097561
0.32195121 0.25243902 1.097561
0.32363635 0.25090909 1.0909091
0.32727271 0.25090909 1.0909091
0.3309091 0.25090909 1.0909091
0.33253011 0.24939759 1.0843374
0.33614457 0.24939759 1.0843374
0.33975902 0.24939759 1.0843374
0.34337351 0.24939759 1.0843374
0.34698796 0.24939759 1.0843374
0.34850299 0.2479042 1.0778443
0.35209581 0.2479042 1.0778443
0.35568863 0.2479042 1.0778443
0.35714287 0.24642856 1.0714285
0.36071429 0.24642856 1.0714285
0.36428571 0.24642856 1.0714285
0.36785713 0.24642856 1.0714285
0.37142858 0.24642856 1.0714285
0.37278107 0.24497041 1.0650887
0.37633136 0.24497041 1.0650887
0.37988165 0.24497041 1.0650887
0.38343194 0.24497041 1.0650887
0.38698226 0.24497041 1.0650887
-0.25531915 0.29787233 1.2765957
-0.25106382 0.29787233 1.2765957
-0.24507043 0.29577464 1.2676057
-0.24084507 0.29577464 1.2676057
-0.23496504 0.2937063 1.2587413
-0.22916667 0.29166666 1.25
-0.22344828 0.28965518 1.2413793
-0.21931034 0.28965518 1.2413793
-0.21517241 0.28965518 1.2413793
-0.20958903 0.28767124 1.2328767
-0.20547946 0.28767124 1.2328767
-0.20136987 0.28767124 1.2328767
-0.19591837 0.2857143 1.2244898
-0.19183673 0.2857143 1.2244898
-0.18775511 0.2857143 1.2244898
-0.18367347 0.2857143 1.2244898
-0.17837837 0.28378379 1.2162162
-0.17432432 0.28378379 1.2162162
-0.17027026 0.28378379 1.2162162
-0.16621621 0.28378379 1.2162162
-0.16216215 0.28378379 1.2162162
-0.15810812 0.28378379 1.2162162
-0.15302013 0.28187919 1.2080537
-0.14899328 0.28187919 1.2080537
-0.14496644 0.28187919 1.2080537
-0.14093959 0.28187919 1.2080537
-0.13691275 0.28187919 1.2080537
-0.132 0.28 1.2
-0.12800001 0.28 1.2
-0.124 0.28 1.2
-0.12 0.28 1.2
-0.116 0.28 1.2
-0.112 0.28 1.2
-0.108 0.28 1.2
-0.104 0.28 1.2
-0.1 0.28 1.2
-0.096000001 0.28 1.2
-0.092 0.28 1.2
-0.088 0.28 1.2
-0.083443709 0.2781457 1.192053
-0.079470202 0.2781457 1.192053
-0.075496688 0.2781457 1.192053
-0.071523182 0.2781457 1.192053
-0.041269843 0.22222222 0.95238096
-0.037894737 0.22105263 0.94736844
-0.034736842 0.22105263 0.94736844
-0.031578947 0.22105263 0.94736844
-0.028421052 0.22105263 0.94736844
-0.024870466 0.21761657 0.93264246
-0.021761658 0.21761657 0.93264246
-0.018461538 0.21538462 0.92307693
-0.015228426 0.21319798 0.91370559
-0.012182741 0.21319798 0.91370559
-0.0091370558 0.21319798 0.91370559
-0.0060000001 0.20999999 0.89999998
-0.003 0.20999999 0.89999998
0 0.20999999 0.89999998
0.0029702971 0.20792079 0.89108908
0.0058823531 0.20588236 0.88235295
0.0088235298 0.20588236 0.88235295
0.011707317 0.20487805 0.87804878
0.014563107 0.2038835 0.87378639
0.017391304 0.20289855 0.86956519
0.020289855 0.20289855 0.86956519
0.023076924 0.20192307 0.86538464
0.025837321 0.20095694 0.86124402
0.028436018 0.19905214 0.85308057
0.03127962 0.19905214 0.85308057
0.034123223 0.19905214 0.85308057
0.036966823 0.19905214 0.85308057
0.03943662 0.1971831 0.84507042
0.04225352 0.1971831 0.84507042
0.045070421 0.1971831 0.84507042
0.047663551 0.19626169 0.84112149
0.05046729 0.19626169 0.84112149
0.053023256 0.19534884 0.83720928
0.055813953 0.19534884 0.83720928
0.058333334 0.19444445 0.83333331
0.061111111 0.19444445 0.83333331
0.063594468 0.19354838 0.82949311
0.066359445 0.19354838 0.82949311
0.069124423 0.19354838 0.82949311
0.0718894 0.19354838 0.82949311
0.12941177 0.27450982 1.1764706
0.13333334 0.27450982 1.1764706
0.13725491 0.27450982 1.1764706
0.14117648 0.27450982 1.1764706
0.14415585 0.27272728 1.1688311
0.14805195 0.27272728 1.1688311
0.15194805 0.27272728 1.1688311
0.15584415 0.27272728 1.1688311
0.15974025 0.27272728 1.1688311
0.16258064 0.27096775 1.1612903
0.16645162 0.27096775 1.1612903
0.16923077 0.26923078 1.1538461
0.17307693 0.26923078 1.1538461
0.17692308 0.26923078 1.1538461
0.18076923 0.26923078 1.1538461
0.18461539 0.26923078 1.1538461
0.18726115 0.26751593 1.1464968
0.19108281 0.26751593 1.1464968
0.19490446 0.26751593 1.1464968
0.19872612 0.26751593 1.1464968
0.20254777 0.26751593 1.1464968
0.2050633 0.2658228 1.1392405
0.20886075 0.2658228 1.1392405
0.21265823 0.2658228 1.1392405
0.2164557 0.2658228 1.1392405
0.21886793 0.26415095 1.1320754
0.22264151 0.26415095 1.1320754
0.2264151 0.26415095 1.1320754
0.23018868 0.26415095 1.1320754
0.23396227 0.26415095 1.1320754
0.23625 0.26249999 1.125
0.23999999 0.26249999 1.125
0.24375001 0.26249999 1.125
0.2475 0.26249999 1.125
0.25125 0.26249999 1.125
0.255 0.26249999 1.125
0.25714287 0.26086956 1.1180124
0.26086956 0.26086956 1.1180124
0.26459628 0.26086956 1.1180124
0.26832297 0.26086956 1.1180124
0.2720497 0.26086956 1.1180124
0.27577639 0.26086956 1.1180124
0.27950311 0.26086956 1.1180124
0.28148147 0.25925925 1.1111112
0.28518519 0.25925925 1.1111112
0.2888889 0.25925925 1.1111112
0.29259259 0.25925925 1.1111112
0.29447854 0.2576687 1.1042944
0.29815951 0.2576687 1.1042944
0.30184048 0.2576687 1.1042944
0.30552146 0.2576687 1.1042944
0.30731708 0.25609756 1.097561
0.31097561 0.25609756 1.097561
0.31463414 0.25609756 1.097561
0.31829268 0.25609756 1.097561
0.32195121 0.25609756 1.097561
0.32560974 0.25609756 1.097561
0.32727271 0.25454545 1.0909091
0.3309091 0.25454545 1.0909091
0.33454546 0.25454545 1.0909091
0.33614457 0.25301206 1.0843374
0.33975902 0.25301206 1.0843374
0.34337351 0.25301206 1.0843374
0.34698796 0.25301206 1.0843374
0.34850299 0.251497 1.0778443
0.35209581 0.251497 1.0778443
0.35568863 0.251497 1.0778443
0.35714287 0.25 1.0714285
0.36071429 0.25 1.0714285
0.36428571 0.25 1.0714285
0.36785713 0.25 1.0714285
0.37142858 0.25 1.0714285
0.37278107 0.24852072 1.0650887
0.37633136 0.24852072 1.0650887
0.37988165 0.24852072 1.0650887
0.38343194 0.24852072 1.0650887
0.38698226 0.24852072 1.0650887
-0.25957447 0.30212766 1.2765957
-0.25531915 0.30212766 1.2765957
-0.25106382 0.30212766 1.2765957
-0.24680851 0.30212766 1.2765957
-0.24084507 0.30000001 1.2676057
-0.23496504 0.29790211 1.2587413
-0.22916667 0.29583332 1.25
-0.22344828 0.29379311 1.2413793
-0.21931034 0.29379311 1.2413793
-0.21517241 0.29379311 1.2413793
-0.20958903 0.29178083 1.2328767
-0.20547946 0.29178083 1.2328767
-0.2 0.28979591 1.2244898
-0.19591837 0.28979591 1.2244898
-0.19183673 0.28979591 1.2244898
-0.18775511 0.28979591 1.2244898
-0.18243243 0.28783783 1.2162162
-0.17837837 0.28783783 1.2162162
-0.17432432 0.28783783 1.2162162
-0.17027026 0.28783783 1.2162162
-0.16621621 0.28783783 1.2162162
-0.16216215 0.28783783 1.2162162
-0.15704697 0.28590605 1.2080537
-0.15302013 0.28590605 1.2080537
-0.14899328 0.28590605 1.2080537
-0.14496644 0.28590605 1.2080537
-0.14093959 0.28590605 1.2080537
-0.13691275 0.28590605 1.2080537
-0.132 0.28400001 1.2
-0.12800001 0.28400001 1.2
-0.124 0.28400001 1.2
-0.12 0.28400001 1.2
-0.116 0.28400001 1.2
-0.112 0.28400001 1.2
-0.108 0.28400001 1.2
-0.104 0.28400001 1.2
-0.1 0.28400001 1.2
-0.096000001 0.28400001 1.2
-0.092 0.28400001 1.2
-0.087417215 0.28211921 1.192053
-0.083443709 0.28211921 1.192053
-0.079470202 0.28211921 1.192053
-0.075496688 0.28211921 1.192053
-0.04171123 0.22780749 0.96256685
-0.038502675 0.22780749 0.96256685
-0.035294119 0.22780749 0.96256685
-0.031578947 0.22421053 0.94736844
-0.028272251 0.22303665 0.94240838
-0.02513089 0.22303665 0.94240838
-0.021761658 0.22072539 0.93264246
-0.018556701 0.21958762 0.92783505
-0.015384615 0.21846154 0.92307693
-0.012182741 0.21624365 0.91370559
-0.0091370558 0.21624365 0.91370559
-0.0060913707 0.21624365 0.91370559
-0.003 0.213 0.89999998
0 0.2119403 0.89552242
0.0029702971 0.21089108 0.89108908
0.0059113302 0.20985222 0.8866995
0.0088669946 0.20985222 0.8866995
0.011707317 0.20780487 0.87804878
0.014563107 0.20679611 0.87378639
0.017391304 0.20579711 0.86956519
0.020289855 0.20579711 0.86956519
0.023076924 0.2048077 0.86538464
0.025837321 0.20382775 0.86124402
0.028571429 0.20285714 0.85714287
0.03127962 0.20189573 0.85308057
0.034123223 0.20189573 0.85308057
0.036619719 0.2 0.84507042
0.03943662 0.2 0.84507042
0.04225352 0.2 0.84507042
0.044859812 0.19906542 0.84112149
0.047663551 0.19906542 0.84112149
0.050232559 0.19813953 0.83720928
0.053023256 0.19813953 0.83720928
0.055555556 0.19722222 0.83333331
0.058333334 0.19722222 0.83333331
0.061111111 0.19722222 0.83333331
0.063594468 0.19631337 0.82949311
0.066359445 0.19631337 0.82949311
0.069124423 0.19631337 0.82949311
0.0718894 0.19631337 0.82949311
0.074654378 0.19631337 0.82949311
0.1254902 0.27843139 1.1764706
0.12941177 0.27843139 1.1764706
0.13333334 0.27843139 1.1764706
0.13725491 0.27843139 1.1764706
0.14117648 0.27843139 1.1764706
0.14415585 0.27662337 1.1688311
0.14805195 0.27662337 1.1688311
0.15194805 0.27662337 1.1688311
0.15584415 0.27662337 1.1688311
0.15870968 0.27483872 1.1612903
0.16258064 0.27483872 1.1612903
0.16645162 0.27483872 1.1612903
0.16923077 0.27307692 1.1538461
0.17307693 0.27307692 1.1538461
0.17692308 0.27307692 1.1538461
0.18076923 0.27307692 1.1538461
0.18343949 0.27133757 1.1464968
0.18726115 0.27133757 1.1464968
0.19108281 0.27133757 1.1464968
0.19490446 0.27133757 1.1464968
0.19872612 0.27133757 1.1464968
0.20126583 0.26962024 1.1392405
0.2050633 0.26962024 1.1392405
0.20886075 0.26962024 1.1392405
