# .PCD v0.7 - Point Cloud Data file format
VERSION 0.7
FIELDS x y z
SIZE 4 4 4
TYPE F F F
COUNT 1 1 1
WIDTH 1459
HEIGHT 1
VIEWPOINT 0 0 0 1 0 0 0
POINTS 1459
DATA ascii
0.051674642 0.26985645 0.86124402
0.054285713 0.26857144 0.85714287
0.057142857 0.26857144 0.85714287
0.059433963 0.26603773 0.8490566
0.061682243 0.26355141 0.84112149
0.064485982 0.26355141 0.84112149
0.066976741 0.26232558 0.83720928
0.069124423 0.25990784 0.82949311
0.0718894 0.25990784 0.82949311
0.074654378 0.25990784 0.82949311
0.077064224 0.2587156 0.82568806
0.079452053 0.25753424 0.82191783
0.081818178 0.25636363 0.81818181
0.084545456 0.25636363 0.81818181
0.086486489 0.25405404 0.8108108
0.089189187 0.25405404 0.8108108
0.091891892 0.25405404 0.8108108
0.094594598 0.25405404 0.8108108
0.09686099 0.25291479 0.80717486
0.099551566 0.25291479 0.80717486
0.10224215 0.25291479 0.80717486
0.10493273 0.25291479 0.80717486
-0.22877698 0.41007194 1.2949641
-0.22446044 0.41007194 1.2949641
-0.22014388 0.41007194 1.2949641
-0.21582733 0.41007194 1.2949641
-0.21151079 0.41007194 1.2949641
-0.2028169 0.40140846 1.2676057
-0.1972028 0.39860141 1.2587413
-0.19300699 0.39860141 1.2587413
-0.18881118 0.39860141 1.2587413
-0.18461539 0.39860141 1.2587413
-0.17916666 0.39583334 1.25
-0.17379311 0.39310345 1.2413793
-0.16965517 0.39310345 1.2413793
-0.16551724 0.39310345 1.2413793
-0.16137931 0.39310345 1.2413793
-0.15616438 0.39041096 1.2328767
-0.1520548 0.39041096 1.2328767
-0.14594595 0.38513514 1.2162162
-0.1418919 0.38513514 1.2162162
-0.13783784 0.38513514 1.2162162
-0.13378379 0.38513514 1.2162162
-0.12972973 0.38513514 1.2162162
-0.12567568 0.38513514 1.2162162
-0.12162162 0.38513514 1.2162162
-0.11677852 0.38255033 1.2080537
-0.11275168 0.38255033 1.2080537
-0.10872483 0.38255033 1.2080537
-0.104 0.38 1.2
-0.1 0.38 1.2
-0.095364235 0.37748346 1.192053
-0.091390729 0.37748346 1.192053
-0.087417215 0.37748346 1.192053
-0.082894735 0.375 1.1842105
-0.078947365 0.375 1.1842105
-0.075000003 0.375 1.1842105
-0.070588239 0.37254903 1.1764706
-0.06666667 0.37254903 1.1764706
-0.062745102 0.37254903 1.1764706
-0.058064517 0.36774194 1.1612903
-0.053846154 0.36538461 1.1538461
-0.049681529 0.36305732 1.1464968
-0.045569621 0.3607595 1.1392405
-0.039999999 0.34545454 1.0909091
-0.036363635 0.34545454 1.0909091
-0.032727271 0.34545454 1.0909091
-0.028402368 0.3372781 1.0650887
-0.024705883 0.33529413 1.0588236
-0.020809248 0.32947975 1.0404624
-0.017142856 0.32571429 1.0285715
-0.013714286 0.32571429 1.0285715
-0.0099999998 0.31666666 1
-0.0066298344 0.31491712 0.99447513
-0.0033149172 0.31491712 0.99447513
0 0.30810812 0.97297299
0.0032085562 0.30481285 0.96256685
0.0063492064 0.30158731 0.95238096
0.0095238099 0.30158731 0.95238096
0.0125 0.296875 0.9375
0.015544041 0.29533678 0.93264246
0.018461538 0.2923077 0.92307693
0.021538461 0.2923077 0.92307693
0.024242423 0.28787878 0.90909094
0.027272727 0.28787878 0.90909094
0.029999999 0.285 0.89999998
0.032673266 0.28217822 0.89108908
0.035467979 0.28078818 0.8866995
0.038235296 0.27941176 0.88235295
0.041176472 0.27941176 0.88235295
0.043478262 0.27536231 0.86956519
0.046376813 0.27536231 0.86956519
0.048803829 0.27272728 0.86124402
0.051428571 0.27142859 0.85714287
0.054285713 0.27142859 0.85714287
0.056338027 0.26760563 0.84507042
0.059154928 0.26760563 0.84507042
0.061971832 0.26760563 0.84507042
0.064485982 0.26635513 0.84112149
0.066976741 0.26511627 0.83720928
0.069767445 0.26511627 0.83720928
0.0718894 0.26267281 0.82949311
0.074654378 0.26267281 0.82949311
0.076363638 0.2590909 0.81818181
0.079090908 0.2590909 0.81818181
0.081818178 0.2590909 0.81818181
0.084545456 0.2590909 0.81818181
0.08687783 0.25791857 0.81447965
0.089189187 0.25675675 0.8108108
0.091891892 0.25675675 0.8108108
0.094594598 0.25675675 0.8108108
0.09686099 0.25560537 0.80717486
0.099551566 0.25560537 0.80717486
0.10224215 0.25560537 0.80717486
0.10493273 0.25560537 0.80717486
-0.22446044 0.41438848 1.2949641
-0.22014388 0.41438848 1.2949641
-0.21582733 0.41438848 1.2949641
-0.21151079 0.41438848 1.2949641
-0.20719424 0.41438848 1.2949641
-0.1972028 0.40279719 1.2587413
-0.19300699 0.40279719 1.2587413
-0.18881118 0.40279719 1.2587413
-0.18461539 0.40279719 1.2587413
-0.17916666 0.40000001 1.25
-0.17379311 0.39724138 1.2413793
-0.16965517 0.39724138 1.2413793
-0.16551724 0.39724138 1.2413793
-0.16137931 0.39724138 1.2413793
-0.15616438 0.39452055 1.2328767
-0.1520548 0.39452055 1.2328767
-0.14693877 0.39183673 1.2244898
-0.14285715 0.39183673 1.2244898
-0.13783784 0.38918918 1.2162162
-0.13378379 0.38918918 1.2162162
-0.12972973 0.38918918 1.2162162
-0.12567568 0.38918918 1.2162162
-0.12162162 0.38918918 1.2162162
-0.11677852 0.38657719 1.2080537
-0.11275168 0.38657719 1.2080537
-0.10872483 0.38657719 1.2080537
-0.10469799 0.38657719 1.2080537
-0.099337749 0.38145694 1.192053
-0.095364235 0.38145694 1.192053
-0.091390729 0.38145694 1.192053
-0.087417215 0.38145694 1.192053
-0.082894735 0.37894738 1.1842105
-0.078947365 0.37894738 1.1842105
-0.075000003 0.37894738 1.1842105
-0.070588239 0.3764706 1.1764706
-0.06666667 0.3764706 1.1764706
-0.062337663 0.37402597 1.1688311
-0.058064517 0.37161291 1.1612903
-0.053846154 0.36923078 1.1538461
-0.049681529 0.36687899 1.1464968
-0.045569621 0.36455697 1.1392405
-0.041772153 0.36455697 1.1392405
-0.036363635 0.3490909 1.0909091
-0.031764705 0.33882353 1.0588236
-0.028235294 0.33882353 1.0588236
-0.024705883 0.33882353 1.0588236
-0.020809248 0.33294797 1.0404624
-0.017142856 0.32914287 1.0285715
-0.013714286 0.32914287 1.0285715
-0.0099999998 0.31999999 1
-0.0066298344 0.31823203 0.99447513
-0.0032608695 0.31304348 0.97826087
0 0.31304348 0.97826087
0.0032085562 0.3080214 0.96256685
0.0063492064 0.30476192 0.95238096
0.0095238099 0.30476192 0.95238096
0.012435233 0.29844558 0.93264246
0.015544041 0.29844558 0.93264246
0.018461538 0.29538462 0.92307693
0.021428572 0.29387754 0.91836733
0.024242423 0.29090908 0.90909094
0.027135678 0.28944725 0.9045226
0.029702971 0.2851485 0.89108908
0.032673266 0.2851485 0.89108908
0.035467979 0.28374383 0.8866995
0.038235296 0.28235295 0.88235295
0.040975608 0.28097561 0.87804878
0.043478262 0.27826086 0.86956519
0.046376813 0.27826086 0.86956519
0.048803829 0.27559808 0.86124402
0.051674642 0.27559808 0.86124402
0.054285713 0.2742857 0.85714287
0.056338027 0.27042255 0.84507042
0.059154928 0.27042255 0.84507042
0.061682243 0.26915887 0.84112149
0.064485982 0.26915887 0.84112149
0.066976741 0.26790696 0.83720928
0.069767445 0.26790696 0.83720928
0.0718894 0.26543778 0.82949311
0.07363636 0.26181817 0.81818181
0.076363638 0.26181817 0.81818181
0.079090908 0.26181817 0.81818181
0.081818178 0.26181817 0.81818181
0.084162898 0.2606335 0.81447965
0.08687783 0.2606335 0.81447965
0.089592762 0.2606335 0.81447965
0.091891892 0.25945947 0.8108108
0.094170406 0.25829595 0.80717486
0.09686099 0.25829595 0.80717486
0.099551566 0.25829595 0.80717486
0.10224215 0.25829595 0.80717486
-0.22446044 0.41870505 1.2949641
-0.22014388 0.41870505 1.2949641
-0.21582733 0.41870505 1.2949641
-0.21151079 0.41870505 1.2949641
-0.20571429 0.41571429 1.2857143
-0.20142858 0.41571429 1.2857143
-0.19300699 0.406993 1.2587413
-0.18881118 0.406993 1.2587413
-0.18461539 0.406993 1.2587413
-0.17916666 0.40416667 1.25
-0.17379311 0.40137932 1.2413793
-0.17083333 0.40416667 1.25
-0.16551724 0.40137932 1.2413793
-0.16137931 0.40137932 1.2413793
-0.15724137 0.40137932 1.2413793
-0.15310344 0.40137932 1.2413793
-0.14794521 0.39863014 1.2328767
-0.14285715 0.39591837 1.2244898
-0.13783784 0.39324325 1.2162162
-0.13378379 0.39324325 1.2162162
-0.12972973 0.39324325 1.2162162
-0.12567568 0.39324325 1.2162162
-0.12162162 0.39324325 1.2162162
-0.11677852 0.39060402 1.2080537
-0.11275168 0.39060402 1.2080537
-0.10872483 0.39060402 1.2080537
-0.10469799 0.39060402 1.2080537
-0.099337749 0.38543046 1.192053
-0.095364235 0.38543046 1.192053
-0.091390729 0.38543046 1.192053
-0.087417215 0.38543046 1.192053
-0.082894735 0.38289472 1.1842105
-0.078947365 0.38289472 1.1842105
-0.075000003 0.38289472 1.1842105
-0.071052633 0.38289472 1.1842105
-0.066233769 0.37792209 1.1688311
-0.062337663 0.37792209 1.1688311
-0.058064517 0.37548387 1.1612903
-0.053846154 0.37307692 1.1538461
-0.049681529 0.37070063 1.1464968
-0.045569621 0.36835444 1.1392405
-0.039999999 0.35272726 1.0909091
-0.036363635 0.35272726 1.0909091
-0.032727271 0.35272726 1.0909091
-0.028235294 0.34235293 1.0588236
-0.024418605 0.33837208 1.0465117
-0.020689655 0.33448276 1.0344827
-0.017241379 0.33448276 1.0344827
-0.013259669 0.32154697 0.99447513
-0.0099447509 0.32154697 0.99447513
-0.0065573771 0.3180328 0.98360658
-0.0032608695 0.31630436 0.97826087
0 0.31122994 0.96256685
0.0031578948 0.30631578 0.94736844
0.0063157897 0.30631578 0.94736844
0.0094736842 0.30631578 0.94736844
0.012435233 0.30155441 0.93264246
0.015544041 0.30155441 0.93264246
0.018461538 0.29846153 0.92307693
0.021428572 0.29693878 0.91836733
0.024120603 0.29246232 0.9045226
0.027135678 0.29246232 0.9045226
0.030150754 0.29246232 0.9045226
0.032673266 0.28811881 0.89108908
0.035121951 0.28390244 0.87804878
0.038048781 0.28390244 0.87804878
0.040975608 0.28390244 0.87804878
0.043478262 0.28115943 0.86956519
0.046153847 0.27980769 0.86538464
0.048803829 0.27846891 0.86124402
0.051428571 0.27714285 0.85714287
0.054028437 0.27582937 0.85308057
0.056603774 0.27452829 0.8490566
0.059154928 0.27323943 0.84507042
0.061682243 0.27196261 0.84112149
0.064186044 0.27069768 0.83720928
0.066976741 0.27069768 0.83720928
0.069124423 0.26820275 0.82949311
0.0718894 0.26820275 0.82949311
0.074311927 0.26697248 0.82568806
0.076363638 0.26454544 0.81818181
0.079090908 0.26454544 0.81818181
0.081447966 0.26334843 0.81447965
0.084162898 0.26334843 0.81447965
0.08687783 0.26334843 0.81447965
0.089592762 0.26334843 0.81447965
0.091891892 0.26216215 0.8108108
0.094170406 0.26098654 0.80717486
0.09686099 0.26098654 0.80717486
0.099551566 0.26098654 0.80717486
0.10224215 0.26098654 0.80717486
-0.21582733 0.42302158 1.2949641
-0.20999999 0.41999999 1.2857143
-0.20571429 0.41999999 1.2857143
-0.20142858 0.41999999 1.2857143
-0.19714285 0.41999999 1.2857143
-0.18881118 0.41118881 1.2587413
-0.18461539 0.41118881 1.2587413
-0.18041958 0.41118881 1.2587413
-0.175 0.40833333 1.25
-0.17083333 0.40833333 1.25
-0.16666667 0.40833333 1.25
-0.16249999 0.40833333 1.25
-0.15724137 0.40551725 1.2413793
-0.15310344 0.40551725 1.2413793
-0.14794521 0.40273973 1.2328767
-0.14383562 0.40273973 1.2328767
-0.13972603 0.40273973 1.2328767
-0.13378379 0.39729729 1.2162162
-0.12972973 0.39729729 1.2162162
-0.12567568 0.39729729 1.2162162
-0.12162162 0.39729729 1.2162162
-0.11756757 0.39729729 1.2162162
-0.11275168 0.39463088 1.2080537
-0.10872483 0.39463088 1.2080537
-0.10469799 0.39463088 1.2080537
-0.099337749 0.38940397 1.192053
-0.095364235 0.38940397 1.192053
-0.091390729 0.38940397 1.192053
-0.087417215 0.38940397 1.192053
-0.082894735 0.3868421 1.1842105
-0.078947365 0.3868421 1.1842105
-0.075000003 0.3868421 1.1842105
-0.071052633 0.3868421 1.1842105
-0.067105263 0.3868421 1.1842105
-0.061935484 0.37935483 1.1612903
-0.058064517 0.37935483 1.1612903
-0.054193549 0.37935483 1.1612903
-0.050322581 0.37935483 1.1612903
-0.045569621 0.37215191 1.1392405
-0.039999999 0.35636362 1.0909091
-0.036363635 0.35636362 1.0909091
-0.031578947 0.34385964 1.0526316
-0.028070176 0.34385964 1.0526316
-0.024418605 0.34186047 1.0465117
-0.020689655 0.33793104 1.0344827
-0.016759777 0.32849163 1.0055866
-0.013407821 0.32849163 1.0055866
-0.0099447509 0.32486188 0.99447513
-0.0065573771 0.32131147 0.98360658
-0.0032085562 0.31443849 0.96256685
0 0.31443849 0.96256685
0.0031746032 0.31111112 0.95238096
0.0063157897 0.30947369 0.94736844
0.0093264244 0.30466321 0.93264246
0.012435233 0.30466321 0.93264246
0.015544041 0.30466321 0.93264246
0.018461538 0.30153847 0.92307693
0.021319797 0.29847714 0.91370559
0.024365483 0.29847714 0.91370559
0.027000001 0.294 0.89999998
0.029999999 0.294 0.89999998
0.032835823 0.2925373 0.89552242
0.035294119 0.28823531 0.88235295
0.038048781 0.28682926 0.87804878
0.04057971 0.28405797 0.86956519
0.043478262 0.28405797 0.86956519
0.046153847 0.28269231 0.86538464
0.04857143 0.28 0.85714287
0.051428571 0.28 0.85714287
0.054028437 0.27867299 0.85308057
0.056603774 0.2773585 0.8490566
0.059154928 0.27605635 0.84507042
0.061682243 0.27476636 0.84112149
0.064186044 0.27348837 0.83720928
0.06666667 0.27222222 0.83333331
0.069124423 0.27096775 0.82949311
0.0718894 0.27096775 0.82949311
0.074311927 0.26972476 0.82568806
0.077064224 0.26972476 0.82568806
0.078733034 0.26606336 0.81447965
0.081447966 0.26606336 0.81447965
0.084162898 0.26606336 0.81447965
0.08687783 0.26606336 0.81447965
0.089189187 0.26486486 0.8108108
0.091479823 0.26367712 0.80717486
0.094170406 0.26367712 0.80717486
0.09686099 0.26367712 0.80717486
0.099551566 0.26367712 0.80717486
0.10224215 0.26367712 0.80717486
0.10493273 0.26367712 0.80717486
-0.20999999 0.42428571 1.2857143
-0.20571429 0.42428571 1.2857143
-0.20142858 0.42428571 1.2857143
-0.19714285 0.42428571 1.2857143
-0.19148937 0.4212766 1.2765957
-0.18723404 0.4212766 1.2765957
-0.18297872 0.4212766 1.2765957
-0.17872341 0.4212766 1.2765957
-0.17323944 0.41830987 1.2676057
-0.16666667 0.41249999 1.25
-0.16249999 0.41249999 1.25
-0.15833333 0.41249999 1.25
-0.15416667 0.41249999 1.25
-0.14794521 0.40684932 1.2328767
-0.14383562 0.40684932 1.2328767
-0.13972603 0.40684932 1.2328767
-0.13469388 0.40408164 1.2244898
-0.12972973 0.40135136 1.2162162
-0.12567568 0.40135136 1.2162162
-0.12162162 0.40135136 1.2162162
-0.11756757 0.40135136 1.2162162
-0.11351351 0.40135136 1.2162162
-0.10872483 0.39865771 1.2080537
-0.10469799 0.39865771 1.2080537
-0.10067114 0.39865771 1.2080537
-0.095364235 0.39337748 1.192053
-0.091390729 0.39337748 1.192053
-0.087417215 0.39337748 1.192053
-0.083443709 0.39337748 1.192053
-0.078947365 0.39078948 1.1842105
-0.075000003 0.39078948 1.1842105
-0.071052633 0.39078948 1.1842105
-0.067105263 0.39078948 1.1842105
-0.062745102 0.3882353 1.1764706
-0.058064517 0.3832258 1.1612903
-0.054193549 0.3832258 1.1612903
-0.050322581 0.3832258 1.1612903
-0.046451613 0.3832258 1.1612903
-0.039999999 0.36000001 1.0909091
-0.036363635 0.36000001 1.0909091
-0.031578947 0.34736842 1.0526316
-0.028070176 0.34736842 1.0526316
-0.024137931 0.34137931 1.0344827
-0.020689655 0.34137931 1.0344827
-0.016759777 0.33184358 1.0055866
-0.013407821 0.33184358 1.0055866
-0.0098360656 0.32459018 0.98360658
-0.0065573771 0.32459018 0.98360658
-0.0032085562 0.31764707 0.96256685
0 0.31764707 0.96256685
0.0031746032 0.31428573 0.95238096
0.0062827226 0.31099477 0.94240838
0.0094240839 0.31099477 0.94240838
0.012435233 0.30777201 0.93264246
0.015544041 0.30777201 0.93264246
0.018274112 0.30152285 0.91370559
0.021319797 0.30152285 0.91370559
0.024365483 0.30152285 0.91370559
0.027000001 0.29699999 0.89999998
0.029850746 0.29552239 0.89552242
0.032835823 0.29552239 0.89552242
0.035294119 0.29117647 0.88235295
0.038235296 0.29117647 0.88235295
0.04057971 0.28695652 0.86956519
0.043478262 0.28695652 0.86956519
0.045714285 0.28285715 0.85714287
0.04857143 0.28285715 0.85714287
0.051428571 0.28285715 0.85714287
0.054028437 0.28151658 0.85308057
0.056603774 0.28018868 0.8490566
0.059154928 0.27887323 0.84507042
0.061682243 0.2775701 0.84112149
0.064186044 0.27627906 0.83720928
0.06666667 0.27500001 0.83333331
0.069124423 0.27373272 0.82949311
0.07155963 0.27247706 0.82568806
0.074311927 0.27247706 0.82568806
0.076712325 0.27123287 0.82191783
0.079090908 0.27000001 0.81818181
0.081447966 0.26877829 0.81447965
0.084162898 0.26877829 0.81447965
0.086486489 0.26756757 0.8108108
0.089189187 0.26756757 0.8108108
0.091479823 0.2663677 0.80717486
0.094170406 0.2663677 0.80717486
0.09686099 0.2663677 0.80717486
0.099551566 0.2663677 0.80717486
0.10224215 0.2663677 0.80717486
-0.20999999 0.42857143 1.2857143
-0.20571429 0.42857143 1.2857143
-0.20142858 0.42857143 1.2857143
-0.19714285 0.42857143 1.2857143
-0.19148937 0.42553192 1.2765957
-0.18723404 0.42553192 1.2765957
-0.18297872 0.42553192 1.2765957
-0.17872341 0.42553192 1.2765957
-0.17323944 0.42253521 1.2676057
-0.16901408 0.42253521 1.2676057
-0.16363636 0.41958043 1.2587413
-0.15833333 0.41666666 1.25
-0.15416667 0.41666666 1.25
-0.14794521 0.41095892 1.2328767
-0.14383562 0.41095892 1.2328767
-0.13972603 0.41095892 1.2328767
-0.13469388 0.40816328 1.2244898
-0.13061224 0.40816328 1.2244898
-0.12567568 0.4054054 1.2162162
-0.12162162 0.4054054 1.2162162
-0.11756757 0.4054054 1.2162162
-0.11351351 0.4054054 1.2162162
-0.10872483 0.40268457 1.2080537
-0.10469799 0.40268457 1.2080537
-0.1 0.40000001 1.2
-0.096000001 0.40000001 1.2
-0.092 0.40000001 1.2
-0.087417215 0.397351 1.192053
-0.083443709 0.397351 1.192053
-0.078947365 0.39473686 1.1842105
-0.075000003 0.39473686 1.1842105
-0.071052633 0.39473686 1.1842105
-0.067105263 0.39473686 1.1842105
-0.062745102 0.39215687 1.1764706
-0.05882353 0.39215687 1.1764706
-0.054193549 0.38709676 1.1612903
-0.050322581 0.38709676 1.1612903
-0.046451613 0.38709676 1.1612903
-0.042580646 0.38709676 1.1612903
-0.035294119 0.35294119 1.0588236
-0.031764705 0.35294119 1.0588236
-0.027586207 0.34482759 1.0344827
-0.024137931 0.34482759 1.0344827
-0.020689655 0.34482759 1.0344827
-0.016393442 0.32786885 0.98360658
-0.013114754 0.32786885 0.98360658
-0.0098360656 0.32786885 0.98360658
-0.0065573771 0.32786885 0.98360658
-0.0032258064 0.32258064 0.96774191
0 0.32085562 0.96256685
0.0031413613 0.31413612 0.94240838
0.0062827226 0.31413612 0.94240838
0.0092783505 0.30927834 0.92783505
0.012371134 0.30927834 0.92783505
0.015463918 0.30927834 0.92783505
0.018181818 0.30303031 0.90909094
0.021212121 0.30303031 0.90909094
0.024242423 0.30303031 0.90909094
0.026865672 0.29850745 0.89552242
0.029850746 0.29850745 0.89552242
0.032352943 0.29411766 0.88235295
0.035294119 0.29411766 0.88235295
0.038048781 0.29268292 0.87804878
0.040975608 0.29268292 0.87804878
0.043269232 0.28846154 0.86538464
0.045714285 0.2857143 0.85714287
0.04857143 0.2857143 0.85714287
0.051184833 0.2843602 0.85308057
0.053773586 0.28301886 0.8490566
0.056603774 0.28301886 0.8490566
0.058878504 0.28037384 0.84112149
0.061682243 0.28037384 0.84112149
0.063888893 0.27777779 0.83333331
0.06666667 0.27777779 0.83333331
0.068807341 0.27522936 0.82568806
0.07155963 0.27522936 0.82568806
0.073972605 0.2739726 0.82191783
0.076712325 0.2739726 0.82191783
0.079090908 0.27272728 0.81818181
0.081818178 0.27272728 0.81818181
0.083783783 0.27027026 0.8108108
0.086486489 0.27027026 0.8108108
0.089189187 0.27027026 0.8108108
0.091479823 0.26905829 0.80717486
0.094170406 0.26905829 0.80717486
0.09686099 0.26905829 0.80717486
0.099551566 0.26905829 0.80717486
0.10224215 0.26905829 0.80717486
0.10493273 0.26905829 0.80717486
-0.20142858 0.43285716 1.2857143
-0.19574468 0.42978725 1.2765957
-0.19148937 0.42978725 1.2765957
-0.18723404 0.42978725 1.2765957
-0.18297872 0.42978725 1.2765957
-0.17872341 0.42978725 1.2765957
-0.17323944 0.42676055 1.2676057
-0.17021276 0.42978725 1.2765957
-0.16363636 0.42377621 1.2587413
-0.15944056 0.42377621 1.2587413
-0.15524475 0.42377621 1.2587413
-0.15000001 0.42083332 1.25
-0.14583333 0.42083332 1.25
-0.14068966 0.41793102 1.2413793
-0.13655172 0.41793102 1.2413793
-0.13241379 0.41793102 1.2413793
-0.12567568 0.40945947 1.2162162
-0.12162162 0.40945947 1.2162162
-0.11756757 0.40945947 1.2162162
-0.11351351 0.40945947 1.2162162
-0.10872483 0.4067114 1.2080537
-0.10469799 0.4067114 1.2080537
-0.1 0.40400001 1.2
-0.096000001 0.40400001 1.2
-0.091390729 0.40132451 1.192053
-0.087417215 0.40132451 1.192053
-0.083443709 0.40132451 1.192053
-0.078947365 0.3986842 1.1842105
-0.075000003 0.3986842 1.1842105
-0.071052633 0.3986842 1.1842105
-0.067105263 0.3986842 1.1842105
-0.063157894 0.3986842 1.1842105
-0.05882353 0.39607844 1.1764706
-0.054901961 0.39607844 1.1764706
-0.050322581 0.39096776 1.1612903
-0.046451613 0.39096776 1.1612903
-0.03882353 0.35647058 1.0588236
-0.035294119 0.35647058 1.0588236
-0.031764705 0.35647058 1.0588236
-0.028235294 0.35647058 1.0588236
-0.024137931 0.34827587 1.0344827
-0.020689655 0.34827587 1.0344827
-0.016393442 0.33114755 0.98360658
-0.013043478 0.32934782 0.97826087
-0.0097826086 0.32934782 0.97826087
-0.0064516128 0.32580644 0.96774191
-0.0032258064 0.32580644 0.96774191
0 0.32580644 0.96774191
0.0031413613 0.31727749 0.94240838
0.0062827226 0.31727749 0.94240838
0.0092783505 0.31237113 0.92783505
0.012371134 0.31237113 0.92783505
0.015306123 0.30918369 0.91836733
0.018367346 0.30918369 0.91836733
0.021212121 0.30606061 0.90909094
0.024242423 0.30606061 0.90909094
0.026865672 0.30149254 0.89552242
0.029411765 0.29705882 0.88235295
0.032352943 0.29705882 0.88235295
0.035294119 0.29705882 0.88235295
0.038048781 0.29560974 0.87804878
0.04057971 0.29275364 0.86956519
0.043269232 0.29134616 0.86538464
0.046153847 0.29134616 0.86538464
0.048341233 0.28720379 0.85308057
0.051184833 0.28720379 0.85308057
0.053773586 0.28584906 0.8490566
0.056338027 0.28450704 0.84507042
0.058878504 0.28317758 0.84112149
0.061111111 0.28055555 0.83333331
0.063888893 0.28055555 0.83333331
0.06666667 0.28055555 0.83333331
0.068807341 0.27798164 0.82568806
0.071232878 0.27671233 0.82191783
0.073972605 0.27671233 0.82191783
0.076712325 0.27671233 0.82191783
0.078733034 0.27420816 0.81447965
0.081447966 0.27420816 0.81447965
0.083783783 0.27297297 0.8108108
0.086486489 0.27297297 0.8108108
0.08878924 0.27174887 0.80717486
0.091479823 0.27174887 0.80717486
0.094170406 0.27174887 0.80717486
0.09686099 0.27174887 0.80717486
0.099551566 0.27174887 0.80717486
0.10224215 0.27174887 0.80717486
-0.18723404 0.43404254 1.2765957
-0.18297872 0.43404254 1.2765957
-0.17872341 0.43404254 1.2765957
-0.17446809 0.43404254 1.2765957
-0.17021276 0.43404254 1.2765957
-0.16595745 0.43404254 1.2765957
-0.15944056 0.42797202 1.2587413
-0.15633802 0.43098593 1.2676057
-0.15104896 0.42797202 1.2587413
-0.14583333 0.42500001 1.25
-0.14068966 0.42206895 1.2413793
-0.13655172 0.42206895 1.2413793
-0.13241379 0.42206895 1.2413793
-0.12827586 0.42206895 1.2413793
-0.12162162 0.41351351 1.2162162
-0.11836734 0.41632652 1.2244898
-0.11428571 0.41632652 1.2244898
-0.10945946 0.41351351 1.2162162
-0.10540541 0.41351351 1.2162162
-0.1 0.40799999 1.2
-0.096000001 0.40799999 1.2
-0.091390729 0.40529802 1.192053
-0.087417215 0.40529802 1.192053
-0.083443709 0.40529802 1.192053
-0.079470202 0.40529802 1.192053
-0.075000003 0.40263158 1.1842105
-0.071052633 0.40263158 1.1842105
-0.067105263 0.40263158 1.1842105
-0.063157894 0.40263158 1.1842105
-0.05882353 0.40000001 1.1764706
-0.054901961 0.40000001 1.1764706
-0.050322581 0.39483872 1.1612903
-0.046451613 0.39483872 1.1612903
-0.043137256 0.40000001 1.1764706
-0.035294119 0.36000001 1.0588236
-0.031764705 0.36000001 1.0588236
-0.028235294 0.36000001 1.0588236
-0.024705883 0.36000001 1.0588236
-0.019672131 0.33442622 0.98360658
-0.016393442 0.33442622 0.98360658
-0.013114754 0.33442622 0.98360658
-0.0097826086 0.3326087 0.97826087
-0.0064516128 0.32903227 0.96774191
-0.0032258064 0.32903227 0.96774191
0 0.32903227 0.96774191
0.0030612245 0.31224489 0.91836733
0.0061224489 0.31224489 0.91836733
0.0091836732 0.31224489 0.91836733
0.012244898 0.31224489 0.91836733
0.015306123 0.31224489 0.91836733
0.018090453 0.30753767 0.9045226
0.021105528 0.30753767 0.9045226
0.023762377 0.30297029 0.89108908
0.026600985 0.30147782 0.8866995
0.029556651 0.30147782 0.8866995
0.032352943 0.30000001 0.88235295
0.035121951 0.2985366 0.87804878
0.038048781 0.2985366 0.87804878
0.04057971 0.29565218 0.86956519
0.043269232 0.29423076 0.86538464
0.046153847 0.29423076 0.86538464
0.048113208 0.28867924 0.8490566
0.050943397 0.28867924 0.8490566
0.053773586 0.28867924 0.8490566
0.056338027 0.28732395 0.84507042
0.05860465 0.28465116 0.83720928
0.061395347 0.28465116 0.83720928
0.063888893 0.28333333 0.83333331
0.066359445 0.28202766 0.82949311
0.068807341 0.28073394 0.82568806
0.071232878 0.27945206 0.82191783
0.073972605 0.27945206 0.82191783
0.076363638 0.27818182 0.81818181
0.078733034 0.27692309 0.81447965
0.081447966 0.27692309 0.81447965
0.083783783 0.27567568 0.8108108
0.086486489 0.27567568 0.8108108
0.089189187 0.27567568 0.8108108
0.091479823 0.27443945 0.80717486
0.094170406 0.27443945 0.80717486
0.09686099 0.27443945 0.80717486
0.099551566 0.27443945 0.80717486
0.10224215 0.27443945 0.80717486
-0.17872341 0.43829787 1.2765957
-0.17446809 0.43829787 1.2765957
-0.17021276 0.43829787 1.2765957
-0.16478874 0.43521127 1.2676057
-0.16056338 0.43521127 1.2676057
-0.15633802 0.43521127 1.2676057
-0.15104896 0.43216783 1.2587413
-0.14685315 0.43216783 1.2587413
-0.14166667 0.42916667 1.25
-0.13655172 0.42620689 1.2413793
-0.13241379 0.42620689 1.2413793
-0.12827586 0.42620689 1.2413793
-0.12413793 0.42620689 1.2413793
-0.11836734 0.42040816 1.2244898
-0.11428571 0.42040816 1.2244898
-0.10945946 0.41756758 1.2162162
-0.10540541 0.41756758 1.2162162
-0.1 0.412 1.2
-0.096000001 0.412 1.2
-0.092 0.412 1.2
-0.087417215 0.40927151 1.192053
-0.083443709 0.40927151 1.192053
-0.079470202 0.40927151 1.192053
-0.075000003 0.40657896 1.1842105
-0.071052633 0.40657896 1.1842105
-0.067105263 0.40657896 1.1842105
-0.063157894 0.40657896 1.1842105
-0.059210528 0.40657896 1.1842105
-0.054901961 0.40392157 1.1764706
-0.050980393 0.40392157 1.1764706
-0.047058824 0.40392157 1.1764706
-0.043137256 0.40392157 1.1764706
-0.039215688 0.40392157 1.1764706
-0.031764705 0.36352941 1.0588236
-0.028235294 0.36352941 1.0588236
-0.024705883 0.36352941 1.0588236
-0.019672131 0.33770493 0.98360658
-0.016393442 0.33770493 0.98360658
-0.013114754 0.33770493 0.98360658
-0.0098360656 0.33770493 0.98360658
-0.0064516128 0.33225808 0.96774191
-0.0032258064 0.33225808 0.96774191
0 0.32020727 0.93264246
0.0030612245 0.31530613 0.91836733
0.0061224489 0.31530613 0.91836733
0.0091836732 0.31530613 0.91836733
0.012244898 0.31530613 0.91836733
0.015151516 0.31212121 0.90909094
0.018090453 0.31055278 0.9045226
0.021105528 0.31055278 0.9045226
0.023762377 0.3059406 0.89108908
0.026600985 0.30443349 0.8866995
0.029556651 0.30443349 0.8866995
0.032352943 0.30294117 0.88235295
0.035121951 0.30146343 0.87804878
0.037500001 0.29711539 0.86538464
0.040191386 0.29569378 0.86124402
0.043062203 0.29569378 0.86124402
0.045933016 0.29569378 0.86124402
0.048113208 0.29150942 0.8490566
0.050943397 0.29150942 0.8490566
0.053773586 0.29150942 0.8490566
0.055813953 0.28744185 0.83720928
0.05860465 0.28744185 0.83720928
0.060829494 0.28479263 0.82949311
0.063594468 0.28479263 0.82949311
0.066359445 0.28479263 0.82949311
0.068807341 0.28348625 0.82568806
0.071232878 0.28219178 0.82191783
0.073972605 0.28219178 0.82191783
0.076363638 0.28090909 0.81818181
0.078733034 0.27963802 0.81447965
0.081081077 0.27837837 0.8108108
0.083783783 0.27837837 0.8108108
0.086486489 0.27837837 0.8108108
0.08878924 0.27713004 0.80717486
0.091479823 0.27713004 0.80717486
0.094170406 0.27713004 0.80717486
0.09686099 0.27713004 0.80717486
0.099551566 0.27713004 0.80717486
-0.17697842 0.44892088 1.2949641
-0.17266187 0.44892088 1.2949641
-0.16834532 0.44892088 1.2949641
-0.16056338 0.43943661 1.2676057
-0.15633802 0.43943661 1.2676057
-0.15104896 0.43636364 1.2587413
-0.14583333 0.43333334 1.25
-0.14166667 0.43333334 1.25
-0.13655172 0.43034482 1.2413793
-0.13241379 0.43034482 1.2413793
-0.12827586 0.43034482 1.2413793
-0.12244898 0.4244898 1.2244898
-0.11836734 0.4244898 1.2244898
-0.11428571 0.4244898 1.2244898
-0.10945946 0.42162162 1.2162162
-0.10540541 0.42162162 1.2162162
-0.1 0.41600001 1.2
-0.096000001 0.41600001 1.2
-0.092 0.41600001 1.2
-0.088 0.41600001 1.2
-0.083443709 0.41324502 1.192053
-0.079470202 0.41324502 1.192053
-0.075000003 0.41052631 1.1842105
-0.071052633 0.41052631 1.1842105
-0.067105263 0.41052631 1.1842105
-0.063157894 0.41052631 1.1842105
-0.059210528 0.41052631 1.1842105
-0.054901961 0.40784314 1.1764706
-0.050980393 0.40784314 1.1764706
-0.047058824 0.40784314 1.1764706
-0.043137256 0.40784314 1.1764706
-0.039215688 0.40784314 1.1764706
-0.035294119 0.40784314 1.1764706
-0.031372551 0.40784314 1.1764706
-0.022702703 0.33729729 0.97297299
-0.01945946 0.33729729 0.97297299
-0.016216217 0.33729729 0.97297299
-0.012972973 0.33729729 0.97297299
-0.00972973 0.33729729 0.97297299
-0.0063492064 0.33015874 0.95238096
-0.0031746032 0.33015874 0.95238096
0 0.32331607 0.93264246
0.0031088083 0.32331607 0.93264246
0.0061224489 0.31836733 0.91836733
0.0091836732 0.31836733 0.91836733
0.012244898 0.31836733 0.91836733
0.015151516 0.31515151 0.90909094
0.017999999 0.31200001 0.89999998
0.021 0.31200001 0.89999998
0.023762377 0.30891088 0.89108908
0.026600985 0.30738917 0.8866995
0.029126214 0.30291262 0.87378639
0.032038834 0.30291262 0.87378639
0.034782607 0.30144927 0.86956519
0.037500001 0.30000001 0.86538464
0.040191386 0.29856458 0.86124402
0.043062203 0.29856458 0.86124402
0.04549763 0.29573458 0.85308057
0.048113208 0.29433963 0.8490566
0.050704226 0.29295775 0.84507042
0.053521127 0.29295775 0.84507042
0.055813953 0.29023257 0.83720928
0.05860465 0.29023257 0.83720928
0.061111111 0.2888889 0.83333331
0.063594468 0.2875576 0.82949311
0.066359445 0.2875576 0.82949311
0.06818182 0.28363636 0.81818181
0.07090909 0.28363636 0.81818181
0.073303171 0.28235295 0.81447965
0.076018102 0.28235295 0.81447965
0.078733034 0.28235295 0.81447965
0.081447966 0.28235295 0.81447965
0.083783783 0.28108108 0.8108108
0.086098656 0.27982062 0.80717486
0.08878924 0.27982062 0.80717486
0.091479823 0.27982062 0.80717486
0.094170406 0.27982062 0.80717486
0.09686099 0.27982062 0.80717486
0.099551566 0.27982062 0.80717486
0.10224215 0.27982062 0.80717486
-0.18129496 0.45323741 1.2949641
-0.17697842 0.45323741 1.2949641
-0.17266187 0.45323741 1.2949641
-0.16834532 0.45323741 1.2949641
-0.16402878 0.45323741 1.2949641
-0.15633802 0.44366196 1.2676057
-0.15211268 0.44366196 1.2676057
-0.14788732 0.44366196 1.2676057
-0.14166667 0.4375 1.25
-0.13655172 0.43448275 1.2413793
-0.13241379 0.43448275 1.2413793
-0.12827586 0.43448275 1.2413793
-0.12244898 0.42857143 1.2244898
-0.11836734 0.42857143 1.2244898
-0.11428571 0.42857143 1.2244898
-0.10945946 0.42567569 1.2162162
-0.10540541 0.42567569 1.2162162
-0.10135135 0.42567569 1.2162162
-0.096644297 0.42281878 1.2080537
-0.092617452 0.42281878 1.2080537
-0.088 0.41999999 1.2
-0.083999999 0.41999999 1.2
-0.079470202 0.41721854 1.192053
-0.075496688 0.41721854 1.192053
-0.071052633 0.41447368 1.1842105
-0.067105263 0.41447368 1.1842105
-0.063157894 0.41447368 1.1842105
-0.059210528 0.41447368 1.1842105
-0.055263158 0.41447368 1.1842105
-0.050980393 0.41176471 1.1764706
-0.047368422 0.41447368 1.1842105
-0.043137256 0.41176471 1.1764706
-0.039215688 0.41176471 1.1764706
-0.035294119 0.41176471 1.1764706
-0.031788081 0.41721854 1.192053
-0.01945946 0.34054053 0.97297299
-0.016216217 0.34054053 0.97297299
-0.012972973 0.34054053 0.97297299
-0.0095238099 0.33333334 0.95238096
-0.0063492064 0.33333334 0.95238096
-0.0031746032 0.33333334 0.95238096
0 0.32642487 0.93264246
0.0031088083 0.32642487 0.93264246
0.0061224489 0.32142857 0.91836733
0.0091836732 0.32142857 0.91836733
0.012060301 0.31658292 0.9045226
0.015 0.315 0.89999998
0.017999999 0.315 0.89999998
0.020689655 0.31034482 0.8866995
0.023762377 0.31188118 0.89108908
0.026732674 0.31188118 0.89108908
0.029126214 0.30582523 0.87378639
0.032038834 0.30582523 0.87378639
0.034782607 0.30434781 0.86956519
0.037500001 0.30288461 0.86538464
0.040191386 0.30143541 0.86124402
0.043062203 0.30143541 0.86124402
0.04549763 0.2985782 0.85308057
0.048113208 0.2971698 0.8490566
0.050704226 0.29577464 0.84507042
0.053521127 0.29577464 0.84507042
0.055813953 0.29302326 0.83720928
0.05860465 0.29302326 0.83720928
0.061111111 0.29166666 0.83333331
0.063888893 0.29166666 0.83333331
0.065753423 0.28767124 0.82191783
0.06818182 0.28636363 0.81818181
0.07090909 0.28636363 0.81818181
0.07363636 0.28636363 0.81818181
0.076018102 0.28506789 0.81447965
0.078733034 0.28506789 0.81447965
0.081081077 0.28378379 0.8108108
0.083783783 0.28378379 0.8108108
0.086098656 0.2825112 0.80717486
0.08878924 0.2825112 0.80717486
0.091479823 0.2825112 0.80717486
0.094170406 0.2825112 0.80717486
0.09686099 0.2825112 0.80717486
0.099551566 0.2825112 0.80717486
-0.17697842 0.45755395 1.2949641
-0.17266187 0.45755395 1.2949641
-0.16834532 0.45755395 1.2949641
-0.16402878 0.45755395 1.2949641
-0.15633802 0.44788733 1.2676057
-0.15211268 0.44788733 1.2676057
-0.14788732 0.44788733 1.2676057
-0.14166667 0.44166666 1.25
-0.13655172 0.43862069 1.2413793
-0.13241379 0.43862069 1.2413793
-0.12827586 0.43862069 1.2413793
-0.12244898 0.43265307 1.2244898
-0.11836734 0.43265307 1.2244898
-0.11428571 0.43265307 1.2244898
-0.10945946 0.42972973 1.2162162
-0.10540541 0.42972973 1.2162162
-0.10135135 0.42972973 1.2162162
-0.096644297 0.42684564 1.2080537
-0.092 0.42399999 1.2
-0.088 0.42399999 1.2
-0.083999999 0.42399999 1.2
-0.079470202 0.42119205 1.192053
-0.075496688 0.42119205 1.192053
-0.071523182 0.42119205 1.192053
-0.067105263 0.41842106 1.1842105
-0.063157894 0.41842106 1.1842105
-0.059210528 0.41842106 1.1842105
-0.055263158 0.41842106 1.1842105
-0.051315788 0.41842106 1.1842105
-0.047368422 0.41842106 1.1842105
-0.043421052 0.41842106 1.1842105
-0.039735101 0.42119205 1.192053
-0.035761591 0.42119205 1.192053
-0.032000002 0.42399999 1.2
-0.028000001 0.42399999 1.2
-0.01945946 0.3437838 0.97297299
-0.016216217 0.3437838 0.97297299
-0.012972973 0.3437838 0.97297299
-0.0095238099 0.33650795 0.95238096
-0.0063492064 0.33650795 0.95238096
-0.0031746032 0.33650795 0.95238096
0 0.32953367 0.93264246
0.0030612245 0.3244898 0.91836733
0.0061224489 0.3244898 0.91836733
0.0090452265 0.31959799 0.9045226
0.012060301 0.31959799 0.9045226
0.015075377 0.31959799 0.9045226
0.017733989 0.31330049 0.8866995
0.020689655 0.31330049 0.8866995
0.023645321 0.31330049 0.8866995
0.026213592 0.30873787 0.87378639
0.028985508 0.30724639 0.86956519
0.031884059 0.30724639 0.86956519
0.034782607 0.30724639 0.86956519
0.037320573 0.30430621 0.86124402
0.039999999 0.30285713 0.85714287
0.042857144 0.30285713 0.85714287
0.04528302 0.30000001 0.8490566
0.048113208 0.30000001 0.8490566
0.050943397 0.30000001 0.8490566
0.053521127 0.29859155 0.84507042
0.055813953 0.29581395 0.83720928
0.057798166 0.29174313 0.82568806
0.060550459 0.29174313 0.82568806
0.063013695 0.29041097 0.82191783
0.065753423 0.29041097 0.82191783
0.06849315 0.29041097 0.82191783
0.07090909 0.2890909 0.81818181
0.073303171 0.28778282 0.81447965
0.076018102 0.28778282 0.81447965
0.078378379 0.28648648 0.8108108
0.081081077 0.28648648 0.8108108
0.083783783 0.28648648 0.8108108
0.086098656 0.28520179 0.80717486
0.08878924 0.28520179 0.80717486
0.091479823 0.28520179 0.80717486
0.094170406 0.28520179 0.80717486
0.09686099 0.28520179 0.80717486
0.099551566 0.28520179 0.80717486
-0.17697842 0.46187049 1.2949641
-0.17266187 0.46187049 1.2949641
-0.16834532 0.46187049 1.2949641
-0.16056338 0.45211267 1.2676057
-0.15633802 0.45211267 1.2676057
-0.15211268 0.45211267 1.2676057
-0.14788732 0.45211267 1.2676057
-0.14366198 0.45211267 1.2676057
-0.13655172 0.44275862 1.2413793
-0.13150685 0.43972602 1.2328767
-0.12739725 0.43972602 1.2328767
-0.12244898 0.43673471 1.2244898
-0.11836734 0.43673471 1.2244898
-0.11428571 0.43673471 1.2244898
-0.10945946 0.43378377 1.2162162
-0.10540541 0.43378377 1.2162162
-0.10067114 0.43087247 1.2080537
-0.096644297 0.43087247 1.2080537
-0.092 0.428 1.2
-0.088 0.428 1.2
-0.083999999 0.428 1.2
-0.079470202 0.42516556 1.192053
-0.075496688 0.42516556 1.192053
-0.071523182 0.42516556 1.192053
-0.067549668 0.42516556 1.192053
-0.063576162 0.42516556 1.192053
-0.059602648 0.42516556 1.192053
-0.055629138 0.42516556 1.192053
-0.051315788 0.42236841 1.1842105
-0.047368422 0.42236841 1.1842105
-0.043708608 0.42516556 1.192053
-0.039735101 0.42516556 1.192053
-0.035761591 0.42516556 1.192053
-0.032000002 0.428 1.2
-0.028000001 0.428 1.2
-0.024 0.428 1.2
-0.012698413 0.33968255 0.95238096
-0.0095238099 0.33968255 0.95238096
-0.0063492064 0.33968255 0.95238096
-0.0030612245 0.32755101 0.91836733
0 0.32755101 0.91836733
0.0030612245 0.32755101 0.91836733
0.0061224489 0.32755101 0.91836733
0.0090452265 0.32261306 0.9045226
0.012060301 0.32261306 0.9045226
0.014925373 0.31940299 0.89552242
0.017910447 0.31940299 0.89552242
0.020689655 0.31625617 0.8866995
0.023414634 0.31317073 0.87804878
0.026213592 0.31165048 0.87378639
0.029126214 0.31165048 0.87378639
0.031884059 0.31014493 0.86956519
0.034285713 0.30571428 0.85714287
0.037320573 0.30717704 0.86124402
0.039810427 0.30426541 0.85308057
0.04265403 0.30426541 0.85308057
0.04528302 0.30283019 0.8490566
0.047663551 0.30000001 0.84112149
0.05046729 0.30000001 0.84112149
0.053271029 0.30000001 0.84112149
0.055299539 0.29585254 0.82949311
0.057798166 0.2944954 0.82568806
0.060550459 0.2944954 0.82568806
0.063302755 0.2944954 0.82568806
0.065753423 0.29315069 0.82191783
0.06818182 0.29181817 0.81818181
0.07090909 0.29181817 0.81818181
0.073303171 0.29049775 0.81447965
0.076018102 0.29049775 0.81447965
0.078378379 0.28918919 0.8108108
0.081081077 0.28918919 0.8108108
0.083408073 0.28789237 0.80717486
0.086098656 0.28789237 0.80717486
0.08878924 0.28789237 0.80717486
0.091479823 0.28789237 0.80717486
0.094170406 0.28789237 0.80717486
0.09686099 0.28789237 0.80717486
-0.16834532 0.46618706 1.2949641
-0.16056338 0.45633802 1.2676057
-0.15633802 0.45633802 1.2676057
-0.15211268 0.45633802 1.2676057
-0.14788732 0.45633802 1.2676057
-0.14265734 0.45314685 1.2587413
-0.13846155 0.45314685 1.2587413
-0.13150685 0.44383562 1.2328767
-0.12739725 0.44383562 1.2328767
-0.12328767 0.44383562 1.2328767
-0.11836734 0.44081631 1.2244898
-0.11428571 0.44081631 1.2244898
-0.11020408 0.44081631 1.2244898
-0.10540541 0.43783784 1.2162162
-0.10135135 0.43783784 1.2162162
-0.096644297 0.43489933 1.2080537
-0.092 0.43200001 1.2
-0.088 0.43200001 1.2
-0.083999999 0.43200001 1.2
-0.079999998 0.43200001 1.2
-0.075496688 0.42913908 1.192053
-0.071523182 0.42913908 1.192053
-0.067549668 0.42913908 1.192053
-0.063576162 0.42913908 1.192053
-0.059602648 0.42913908 1.192053
-0.055629138 0.42913908 1.192053
-0.051655628 0.42913908 1.192053
-0.047682118 0.42913908 1.192053
-0.043708608 0.42913908 1.192053
-0.039735101 0.42913908 1.192053
-0.035999998 0.43200001 1.2
-0.032000002 0.43200001 1.2
-0.028000001 0.43200001 1.2
-0.024 0.43200001 1.2
-0.02 0.43200001 1.2
-0.0063492064 0.34285715 0.95238096
-0.0030612245 0.33061224 0.91836733
0 0.33061224 0.91836733
0.0030612245 0.33061224 0.91836733
0.0060606059 0.32727271 0.90909094
0.0090909088 0.32727271 0.90909094
0.011940299 0.32238805 0.89552242
0.014925373 0.32238805 0.89552242
0.01764706 0.31764707 0.88235295
0.020487804 0.31609756 0.87804878
0.023414634 0.31609756 0.87804878
0.026213592 0.3145631 0.87378639
0.028846154 0.31153846 0.86538464
0.031730771 0.31153846 0.86538464
0.034285713 0.30857143 0.85714287
0.037142858 0.30857143 0.85714287
0.039810427 0.307109 0.85308057
0.04225352 0.30422536 0.84507042
0.044859812 0.30280373 0.84112149
0.047663551 0.30280373 0.84112149
0.05046729 0.30280373 0.84112149
0.052534562 0.29861751 0.82949311
0.055299539 0.29861751 0.82949311
0.058064517 0.29861751 0.82949311
0.060550459 0.29724771 0.82568806
0.063013695 0.29589042 0.82191783
0.065753423 0.29589042 0.82191783
0.06818182 0.29454544 0.81818181
0.07090909 0.29454544 0.81818181
0.07363636 0.29454544 0.81818181
0.076018102 0.29321268 0.81447965
0.078733034 0.29321268 0.81447965
0.080717489 0.29058295 0.80717486
0.083408073 0.29058295 0.80717486
0.086098656 0.29058295 0.80717486
0.089189187 0.2918919 0.8108108
0.091891892 0.2918919 0.8108108
0.094594598 0.2918919 0.8108108
0.097297296 0.2918919 0.8108108
-0.16056338 0.46056339 1.2676057
-0.15633802 0.46056339 1.2676057
-0.15211268 0.46056339 1.2676057
-0.14685315 0.45734265 1.2587413
-0.14265734 0.45734265 1.2587413
-0.13846155 0.45734265 1.2587413
-0.13150685 0.44794521 1.2328767
-0.12739725 0.44794521 1.2328767
-0.12244898 0.44489795 1.2244898
-0.11836734 0.44489795 1.2244898
-0.11428571 0.44489795 1.2244898
-0.10945946 0.44189188 1.2162162
-0.10540541 0.44189188 1.2162162
-0.10067114 0.43892616 1.2080537
-0.096644297 0.43892616 1.2080537
-0.092 0.43599999 1.2
-0.088 0.43599999 1.2
-0.083999999 0.43599999 1.2
-0.079999998 0.43599999 1.2
-0.075496688 0.43311259 1.192053
-0.071523182 0.43311259 1.192053
-0.067549668 0.43311259 1.192053
-0.063576162 0.43311259 1.192053
-0.059602648 0.43311259 1.192053
-0.055629138 0.43311259 1.192053
-0.051655628 0.43311259 1.192053
-0.047682118 0.43311259 1.192053
-0.043708608 0.43311259 1.192053
-0.040268455 0.43892616 1.2080537
-0.035999998 0.43599999 1.2
-0.032000002 0.43599999 1.2
-0.028000001 0.43599999 1.2
-0.024 0.43599999 1.2
-0.0030612245 0.33367348 0.91836733
0 0.33367348 0.91836733
0.0030303029 0.33030304 0.90909094
0.0060606059 0.33030304 0.90909094
0.0090909088 0.33030304 0.90909094
0.011764706 0.32058823 0.88235295
0.014705882 0.32058823 0.88235295
0.01764706 0.32058823 0.88235295
0.020487804 0.31902438 0.87804878
0.023414634 0.31902438 0.87804878
0.026086956 0.31594202 0.86956519
0.028846154 0.31442308 0.86538464
0.031730771 0.31442308 0.86538464
0.034285713 0.31142858 0.85714287
0.036792453 0.30849057 0.8490566
0.039622642 0.30849057 0.8490566
0.04225352 0.30704224 0.84507042
0.045070421 0.30704224 0.84507042
0.047663551 0.30560747 0.84112149
0.05046729 0.30560747 0.84112149
0.052534562 0.30138248 0.82949311
0.055299539 0.30138248 0.82949311
0.058064517 0.30138248 0.82949311
0.060550459 0.30000001 0.82568806
0.063013695 0.29863015 0.82191783
0.065753423 0.29863015 0.82191783
0.06818182 0.29727274 0.81818181
0.07090909 0.29727274 0.81818181
0.073303171 0.29592761 0.81447965
0.076018102 0.29592761 0.81447965
0.078733034 0.29592761 0.81447965
0.081447966 0.29592761 0.81447965
0.083408073 0.29327354 0.80717486
0.086486489 0.29459459 0.8108108
0.089189187 0.29459459 0.8108108
0.091891892 0.29459459 0.8108108
0.094594598 0.29459459 0.8108108
-0.15104896 0.46153846 1.2587413
-0.14685315 0.46153846 1.2587413
-0.14265734 0.46153846 1.2587413
-0.1375 0.45833334 1.25
-0.13333334 0.45833334 1.25
-0.12739725 0.4520548 1.2328767
-0.12244898 0.44897959 1.2244898
-0.11836734 0.44897959 1.2244898
-0.11351351 0.44594595 1.2162162
-0.10945946 0.44594595 1.2162162
-0.10540541 0.44594595 1.2162162
-0.10067114 0.44295302 1.2080537
-0.096644297 0.44295302 1.2080537
-0.092 0.44 1.2
-0.088 0.44 1.2
-0.083999999 0.44 1.2
-0.079999998 0.44 1.2
-0.075999998 0.44 1.2
-0.071999997 0.44 1.2
-0.068000004 0.44 1.2
-0.063576162 0.43708611 1.192053
-0.059602648 0.43708611 1.192053
-0.056000002 0.44 1.2
-0.052000001 0.44 1.2
-0.048322149 0.44295302 1.2080537
-0.044295304 0.44295302 1.2080537
-0.040268455 0.44295302 1.2080537
-0.03624161 0.44295302 1.2080537
-0.032000002 0.44 1.2
-0.028000001 0.44 1.2
-0.024 0.44 1.2
0 0.33333334 0.90909094
0.0030303029 0.33333334 0.90909094
0.0060606059 0.33333334 0.90909094
0.0088669946 0.32512316 0.8866995
0.01182266 0.32512316 0.8866995
0.014705882 0.32352942 0.88235295
0.01764706 0.32352942 0.88235295
0.020487804 0.32195121 0.87804878
0.023414634 0.32195121 0.87804878
0.026086956 0.31884059 0.86956519
0.028985508 0.31884059 0.86956519
0.03127962 0.31279621 0.85308057
0.034123223 0.31279621 0.85308057
0.036966823 0.31279621 0.85308057
0.039622642 0.31132075 0.8490566
0.04225352 0.30985916 0.84507042
0.045070421 0.30985916 0.84507042
0.047222223 0.30555555 0.83333331
0.049769584 0.30414745 0.82949311
0.052534562 0.30414745 0.82949311
0.055299539 0.30414745 0.82949311
0.057798166 0.30275229 0.82568806
0.060550459 0.30275229 0.82568806
0.063013695 0.30136988 0.82191783
0.065454543 0.30000001 0.81818181
0.06818182 0.30000001 0.81818181
0.07090909 0.30000001 0.81818181
0.073303171 0.29864255 0.81447965
0.076018102 0.29864255 0.81447965
0.078733034 0.29864255 0.81447965
0.081447966 0.29864255 0.81447965
0.083783783 0.2972973 0.8108108
0.086486489 0.2972973 0.8108108
0.089189187 0.2972973 0.8108108
0.091891892 0.2972973 0.8108108
0.094594598 0.2972973 0.8108108
-0.15104896 0.46573427 1.2587413
-0.14685315 0.46573427 1.2587413
-0.14166667 0.46250001 1.25
-0.1375 0.46250001 1.25
-0.13333334 0.46250001 1.25
-0.12739725 0.45616439 1.2328767
-0.12244898 0.45306122 1.2244898
-0.11756757 0.44999999 1.2162162
-0.11351351 0.44999999 1.2162162
-0.10945946 0.44999999 1.2162162
-0.10540541 0.44999999 1.2162162
-0.10067114 0.44697988 1.2080537
-0.096644297 0.44697988 1.2080537
-0.092617452 0.44697988 1.2080537
-0.088 0.44400001 1.2
-0.083999999 0.44400001 1.2
-0.079999998 0.44400001 1.2
-0.075999998 0.44400001 1.2
-0.071999997 0.44400001 1.2
-0.068000004 0.44400001 1.2
-0.064000003 0.44400001 1.2
-0.059999999 0.44400001 1.2
-0.056000002 0.44400001 1.2
-0.052702703 0.44999999 1.2162162
-0.048322149 0.44697988 1.2080537
-0.044594593 0.44999999 1.2162162
-0.040268455 0.44697988 1.2080537
-0.03624161 0.44697988 1.2080537
-0.03265306 0.45306122 1.2244898
-0.028571429 0.45306122 1.2244898
-0.024489796 0.45306122 1.2244898
0.0029556651 0.32807881 0.8866995
0.0059113302 0.32807881 0.8866995
0.0088669946 0.32807881 0.8866995
0.01182266 0.32807881 0.8866995
0.014778325 0.32807881 0.8866995
0.01764706 0.32647058 0.88235295
0.020192308 0.32019231 0.86538464
0.023076924 0.32019231 0.86538464
0.025961539 0.32019231 0.86538464
0.028301887 0.31415093 0.8490566
0.031132076 0.31415093 0.8490566
0.033962265 0.31415093 0.8490566
0.036792453 0.31415093 0.8490566
0.03943662 0.31267604 0.84507042
0.04225352 0.31267604 0.84507042
0.044444446 0.30833334 0.83333331
0.047222223 0.30833334 0.83333331
0.050000001 0.30833334 0.83333331
0.052534562 0.30691245 0.82949311
0.055299539 0.30691245 0.82949311
0.057798166 0.30550459 0.82568806
0.060550459 0.30550459 0.82568806
0.062727273 0.30272728 0.81818181
0.065454543 0.30272728 0.81818181
0.06818182 0.30272728 0.81818181
0.07090909 0.30272728 0.81818181
0.07363636 0.30272728 0.81818181
0.076018102 0.30135748 0.81447965
0.078733034 0.30135748 0.81447965
0.081447966 0.30135748 0.81447965
0.089189187 0.30000001 0.8108108
-0.15104896 0.46993008 1.2587413
-0.14685315 0.46993008 1.2587413
-0.14265734 0.46993008 1.2587413
-0.1375 0.46666667 1.25
-0.13241379 0.46344829 1.2413793
-0.12827586 0.46344829 1.2413793
-0.12244898 0.45714286 1.2244898
-0.11836734 0.45714286 1.2244898
-0.11351351 0.45405406 1.2162162
-0.10945946 0.45405406 1.2162162
-0.10540541 0.45405406 1.2162162
-0.10135135 0.45405406 1.2162162
-0.096644297 0.45100671 1.2080537
-0.092617452 0.45100671 1.2080537
-0.088 0.44800001 1.2
-0.083999999 0.44800001 1.2
-0.079999998 0.44800001 1.2
-0.075999998 0.44800001 1.2
-0.071999997 0.44800001 1.2
-0.068000004 0.44800001 1.2
-0.064000003 0.44800001 1.2
-0.060810812 0.45405406 1.2162162
-0.056756757 0.45405406 1.2162162
-0.052702703 0.45405406 1.2162162
-0.048648648 0.45405406 1.2162162
-0.044594593 0.45405406 1.2162162
-0.040816326 0.45714286 1.2244898
-0.036734693 0.45714286 1.2244898
-0.03265306 0.45714286 1.2244898
-0.028571429 0.45714286 1.2244898
-0.024489796 0.45714286 1.2244898
-0.020408163 0.45714286 1.2244898
0.0059113302 0.33103448 0.8866995
0.0088669946 0.33103448 0.8866995
0.01182266 0.33103448 0.8866995
0.014778325 0.33103448 0.8866995
0.017307693 0.32307693 0.86538464
0.020192308 0.32307693 0.86538464
0.023076924 0.32307693 0.86538464
0.025961539 0.32307693 0.86538464
0.028846154 0.32307693 0.86538464
0.031132076 0.31698114 0.8490566
0.033962265 0.31698114 0.8490566
0.036619719 0.31549296 0.84507042
0.03943662 0.31549296 0.84507042
0.041860465 0.31255814 0.83720928
0.044444446 0.31111112 0.83333331
0.047222223 0.31111112 0.83333331
0.050000001 0.31111112 0.83333331
0.052534562 0.30967742 0.82949311
0.055045873 0.30825689 0.82568806
0.057534248 0.3068493 0.82191783
0.060273971 0.3068493 0.82191783
0.063013695 0.3068493 0.82191783
0.065454543 0.30545455 0.81818181
0.06818182 0.30545455 0.81818181
0.07090909 0.30545455 0.81818181
0.07363636 0.30545455 0.81818181
