# .PCD v0.7 - Point Cloud Data file format
VERSION 0.7
FIELDS x y z
SIZE 4 4 4
TYPE F F F
COUNT 1 1 1
WIDTH 1482
HEIGHT 1
VIEWPOINT 0 0 0 1 0 0 0
POINTS 1482
DATA ascii
-0.094382025 -0.40449437 1.3483146
-0.087640449 -0.40449437 1.3483146
-0.080898874 -0.40449437 1.3483146
-0.075000003 -0.40909091 1.3636364
-0.06818182 -0.40909091 1.3636364
-0.061363637 -0.40909091 1.3636364
-0.059259258 -0.44444445 1.4814814
-0.05185185 -0.44444445 1.4814814
-0.044444446 -0.44444445 1.4814814
-0.037500001 -0.44999999 1.5
-0.029999999 -0.44999999 1.5
-0.022500001 -0.44999999 1.5
-0.015 -0.44999999 1.5
-0.0074999998 -0.44999999 1.5
0 -0.44999999 1.5
0.0074999998 -0.44999999 1.5
0.015 -0.44999999 1.5
0.022500001 -0.44999999 1.5
0.030379746 -0.4556962 1.5189873
0.037974682 -0.4556962 1.5189873
0.046153847 -0.46153846 1.5384616
0.053846154 -0.46153846 1.5384616
0.061538462 -0.46153846 1.5384616
0.069230773 -0.46153846 1.5384616
0.07692308 -0.46153846 1.5384616
0.084615387 -0.46153846 1.5384616
0.092307694 -0.46153846 1.5384616
0.1 -0.46153846 1.5384616
0.10909091 -0.46753246 1.5584415
0.1125 -0.44999999 1.5
0.12 -0.44999999 1.5
0.13246754 -0.46753246 1.5584415
0.14025974 -0.46753246 1.5584415
0.15000001 -0.47368422 1.5789474
0.15789473 -0.47368422 1.5789474
0.15949367 -0.4556962 1.5189873
0.16708861 -0.4556962 1.5189873
0.17468354 -0.4556962 1.5189873
0.18227848 -0.4556962 1.5189873
0.18987341 -0.4556962 1.5189873
0.19746836 -0.4556962 1.5189873
-0.20816326 -0.3612245 1.2244898
-0.20412371 -0.36494845 1.2371134
-0.19793814 -0.36494845 1.2371134
-0.19175258 -0.36494845 1.2371134
-0.18947369 -0.37263158 1.2631578
-0.18315789 -0.37263158 1.2631578
-0.17684211 -0.37263158 1.2631578
-0.17052631 -0.37263158 1.2631578
-0.16421053 -0.37263158 1.2631578
-0.15789473 -0.37263158 1.2631578
-0.15157895 -0.37263158 1.2631578
-0.14680851 -0.37659574 1.2765957
-0.14042553 -0.37659574 1.2765957
-0.13404255 -0.37659574 1.2765957
-0.12765957 -0.37659574 1.2765957
-0.12127659 -0.37659574 1.2765957
-0.10786517 -0.39775282 1.3483146
-0.10112359 -0.39775282 1.3483146
-0.094382025 -0.39775282 1.3483146
-0.087640449 -0.39775282 1.3483146
-0.079999998 -0.39333335 1.3333334
-0.07333333 -0.39333335 1.3333334
-0.06818182 -0.40227273 1.3636364
-0.061363637 -0.40227273 1.3636364
-0.059259258 -0.43703705 1.4814814
-0.052499998 -0.4425 1.5
-0.045000002 -0.4425 1.5
-0.037500001 -0.4425 1.5
-0.029999999 -0.4425 1.5
-0.022500001 -0.4425 1.5
-0.015 -0.4425 1.5
-0.0074999998 -0.4425 1.5
0 -0.4425 1.5
0.0075949365 -0.44810125 1.5189873
0.015189873 -0.44810125 1.5189873
0.022500001 -0.4425 1.5
0.030769231 -0.45384616 1.5384616
0.03846154 -0.45384616 1.5384616
0.046153847 -0.45384616 1.5384616
0.053846154 -0.45384616 1.5384616
0.061538462 -0.45384616 1.5384616
0.069230773 -0.45384616 1.5384616
0.07692308 -0.45384616 1.5384616
0.084615387 -0.45384616 1.5384616
0.092307694 -0.45384616 1.5384616
0.1012987 -0.45974025 1.5584415
0.10909091 -0.45974025 1.5584415
0.11688311 -0.45974025 1.5584415
0.12467533 -0.45974025 1.5584415
0.13421053 -0.46578947 1.5789474
0.14210527 -0.46578947 1.5789474
0.15000001 -0.46578947 1.5789474
0.15789473 -0.46578947 1.5789474
0.15949367 -0.44810125 1.5189873
0.16708861 -0.44810125 1.5189873
0.17468354 -0.44810125 1.5189873
0.18227848 -0.44810125 1.5189873
0.18987341 -0.44810125 1.5189873
0.19746836 -0.44810125 1.5189873
0.2025 -0.4425 1.5
0.20487805 -0.43170732 1.4634147
-0.22040816 -0.35510203 1.2244898
-0.21428572 -0.35510203 1.2244898
-0.20816326 -0.35510203 1.2244898
-0.20412371 -0.35876289 1.2371134
-0.19793814 -0.35876289 1.2371134
-0.19175258 -0.35876289 1.2371134
-0.18947369 -0.36631578 1.2631578
-0.18315789 -0.36631578 1.2631578
-0.17684211 -0.36631578 1.2631578
-0.16875 -0.36250001 1.25
-0.16421053 -0.36631578 1.2631578
-0.15789473 -0.36631578 1.2631578
-0.15000001 -0.36250001 1.25
-0.14680851 -0.37021276 1.2765957
-0.14042553 -0.37021276 1.2765957
-0.13404255 -0.37021276 1.2765957
-0.12765957 -0.37021276 1.2765957
-0.12 -0.36631578 1.2631578
-0.11368421 -0.36631578 1.2631578
-0.10736842 -0.36631578 1.2631578
-0.1032258 -0.37419355 1.2903225
-0.096774191 -0.37419355 1.2903225
-0.094382025 -0.39101124 1.3483146
-0.084782608 -0.37826088 1.3043479
-0.079999998 -0.38666666 1.3333334
-0.07333333 -0.38666666 1.3333334
-0.06666667 -0.38666666 1.3333334
-0.059999999 -0.38666666 1.3333334
-0.059999999 -0.435 1.5
-0.052499998 -0.435 1.5
-0.045000002 -0.435 1.5
-0.037500001 -0.435 1.5
-0.029999999 -0.435 1.5
-0.022500001 -0.435 1.5
-0.015189873 -0.44050634 1.5189873
-0.0075949365 -0.44050634 1.5189873
0 -0.44050634 1.5189873
0.0075949365 -0.44050634 1.5189873
0.015189873 -0.44050634 1.5189873
0.022784811 -0.44050634 1.5189873
0.030769231 -0.44615385 1.5384616
0.03846154 -0.44615385 1.5384616
0.046153847 -0.44615385 1.5384616
0.053846154 -0.44615385 1.5384616
0.061538462 -0.44615385 1.5384616
0.069230773 -0.44615385 1.5384616
0.07692308 -0.44615385 1.5384616
0.084615387 -0.44615385 1.5384616
0.093506493 -0.45194805 1.5584415
0.1012987 -0.45194805 1.5584415
0.10909091 -0.45194805 1.5584415
0.11688311 -0.45194805 1.5584415
0.12467533 -0.45194805 1.5584415
0.13421053 -0.45789474 1.5789474
0.14210527 -0.45789474 1.5789474
0.15000001 -0.45789474 1.5789474
0.15189873 -0.44050634 1.5189873
0.15949367 -0.44050634 1.5189873
0.16708861 -0.44050634 1.5189873
0.17468354 -0.44050634 1.5189873
0.18227848 -0.44050634 1.5189873
0.1875 -0.435 1.5
0.19499999 -0.435 1.5
0.2025 -0.435 1.5
0.20487805 -0.42439026 1.4634147
0.21219513 -0.42439026 1.4634147
0.21951219 -0.42439026 1.4634147
0.22682928 -0.42439026 1.4634147
0.23414634 -0.42439026 1.4634147
0.26052633 -0.45789474 1.5789474
-0.22040816 -0.34897959 1.2244898
-0.21428572 -0.34897959 1.2244898
-0.20816326 -0.34897959 1.2244898
-0.20204082 -0.34897959 1.2244898
-0.19793814 -0.35257733 1.2371134
-0.19175258 -0.35257733 1.2371134
-0.18556701 -0.35257733 1.2371134
-0.18315789 -0.36000001 1.2631578
-0.175 -0.35624999 1.25
-0.16875 -0.35624999 1.25
-0.16421053 -0.36000001 1.2631578
-0.15789473 -0.36000001 1.2631578
-0.15000001 -0.35624999 1.25
-0.14680851 -0.36382979 1.2765957
-0.14042553 -0.36382979 1.2765957
-0.13404255 -0.36382979 1.2765957
-0.12765957 -0.36382979 1.2765957
-0.12 -0.36000001 1.2631578
-0.11368421 -0.36000001 1.2631578
-0.10736842 -0.36000001 1.2631578
-0.1032258 -0.36774194 1.2903225
-0.096774191 -0.36774194 1.2903225
-0.090322584 -0.36774194 1.2903225
-0.084782608 -0.37173912 1.3043479
-0.078260869 -0.37173912 1.3043479
-0.07333333 -0.38 1.3333334
-0.06666667 -0.38 1.3333334
-0.05934066 -0.37582418 1.3186814
-0.052747253 -0.37582418 1.3186814
-0.052499998 -0.42750001 1.5
-0.045000002 -0.42750001 1.5
-0.037500001 -0.42750001 1.5
-0.029999999 -0.42750001 1.5
-0.022784811 -0.4329114 1.5189873
-0.015189873 -0.4329114 1.5189873
-0.0075949365 -0.4329114 1.5189873
0 -0.4329114 1.5189873
0.0075949365 -0.4329114 1.5189873
0.015189873 -0.4329114 1.5189873
0.022784811 -0.4329114 1.5189873
0.030379746 -0.4329114 1.5189873
0.03846154 -0.43846154 1.5384616
0.043902438 -0.41707316 1.4634147
0.051219512 -0.41707316 1.4634147
0.061538462 -0.43846154 1.5384616
0.069230773 -0.43846154 1.5384616
0.07692308 -0.43846154 1.5384616
0.084615387 -0.43846154 1.5384616
0.093506493 -0.44415584 1.5584415
0.1012987 -0.44415584 1.5584415
0.10909091 -0.44415584 1.5584415
0.11842106 -0.44999999 1.5789474
0.12631579 -0.44999999 1.5789474
0.13421053 -0.44999999 1.5789474
0.14210527 -0.44999999 1.5789474
0.152 -0.456 1.6
0.16 -0.456 1.6
0.15949367 -0.4329114 1.5189873
0.16708861 -0.4329114 1.5189873
0.1725 -0.42750001 1.5
0.18000001 -0.42750001 1.5
0.1875 -0.42750001 1.5
0.19499999 -0.42750001 1.5
0.19756098 -0.41707316 1.4634147
0.20487805 -0.41707316 1.4634147
0.21219513 -0.41707316 1.4634147
0.21951219 -0.41707316 1.4634147
0.22682928 -0.41707316 1.4634147
0.23414634 -0.41707316 1.4634147
0.26052633 -0.44999999 1.5789474
0.26842105 -0.44999999 1.5789474
0.27631578 -0.44999999 1.5789474
-0.22653061 -0.34285715 1.2244898
-0.22040816 -0.34285715 1.2244898
-0.21428572 -0.34285715 1.2244898
-0.20816326 -0.34285715 1.2244898
-0.20204082 -0.34285715 1.2244898
-0.19793814 -0.34639177 1.2371134
-0.19175258 -0.34639177 1.2371134
-0.18556701 -0.34639177 1.2371134
-0.18125001 -0.34999999 1.25
-0.175 -0.34999999 1.25
-0.16701031 -0.34639177 1.2371134
-0.16421053 -0.35368422 1.2631578
-0.15625 -0.34999999 1.25
-0.15000001 -0.34999999 1.25
-0.14375 -0.34999999 1.25
-0.14042553 -0.35744682 1.2765957
-0.13404255 -0.35744682 1.2765957
-0.12631579 -0.35368422 1.2631578
-0.12 -0.35368422 1.2631578
-0.11368421 -0.35368422 1.2631578
-0.10736842 -0.35368422 1.2631578
-0.1032258 -0.36129034 1.2903225
-0.096774191 -0.36129034 1.2903225
-0.090322584 -0.36129034 1.2903225
-0.084782608 -0.36521739 1.3043479
-0.078260869 -0.36521739 1.3043479
-0.07173913 -0.36521739 1.3043479
-0.065934069 -0.36923078 1.3186814
-0.05934066 -0.36923078 1.3186814
-0.052747253 -0.36923078 1.3186814
-0.052499998 -0.41999999 1.5
-0.045000002 -0.41999999 1.5
-0.037500001 -0.41999999 1.5
-0.030379746 -0.42531645 1.5189873
-0.022784811 -0.42531645 1.5189873
-0.014117647 -0.39529413 1.4117647
-0.0071428572 -0.40000001 1.4285715
0 -0.42531645 1.5189873
0.0075949365 -0.42531645 1.5189873
0.015189873 -0.42531645 1.5189873
0.022784811 -0.42531645 1.5189873
0.030379746 -0.42531645 1.5189873
0.036585364 -0.40975609 1.4634147
0.043902438 -0.40975609 1.4634147
0.051219512 -0.40975609 1.4634147
0.058536585 -0.40975609 1.4634147
0.070129871 -0.43636364 1.5584415
0.07692308 -0.43076923 1.5384616
0.084615387 -0.43076923 1.5384616
0.093506493 -0.43636364 1.5584415
0.10263158 -0.44210526 1.5789474
0.11052632 -0.44210526 1.5789474
0.11842106 -0.44210526 1.5789474
0.12631579 -0.44210526 1.5789474
0.13421053 -0.44210526 1.5789474
0.14210527 -0.44210526 1.5789474
0.152 -0.44800001 1.6
0.16 -0.44800001 1.6
0.168 -0.44800001 1.6
0.16500001 -0.41999999 1.5
0.1725 -0.41999999 1.5
0.18000001 -0.41999999 1.5
0.1875 -0.41999999 1.5
0.19499999 -0.41999999 1.5
0.19756098 -0.40975609 1.4634147
0.20487805 -0.40975609 1.4634147
0.21219513 -0.40975609 1.4634147
0.21951219 -0.40975609 1.4634147
0.22682928 -0.40975609 1.4634147
0.23414634 -0.40975609 1.4634147
0.26052633 -0.44210526 1.5789474
0.26842105 -0.44210526 1.5789474
0.27631578 -0.44210526 1.5789474
0.28799999 -0.44800001 1.6
-0.22040816 -0.33673468 1.2244898
-0.21428572 -0.33673468 1.2244898
-0.20816326 -0.33673468 1.2244898
-0.20204082 -0.33673468 1.2244898
-0.19393939 -0.33333334 1.2121212
-0.18787879 -0.33333334 1.2121212
-0.18181819 -0.33333334 1.2121212
-0.17575757 -0.33333334 1.2121212
-0.16969697 -0.33333334 1.2121212
-0.16701031 -0.34020618 1.2371134
-0.16082475 -0.34020618 1.2371134
-0.15625 -0.34375 1.25
-0.15000001 -0.34375 1.25
-0.14375 -0.34375 1.25
-0.13469388 -0.33673468 1.2244898
-0.12989691 -0.34020618 1.2371134
-0.12631579 -0.34736842 1.2631578
-0.11875 -0.34375 1.25
-0.1125 -0.34375 1.25
-0.10625 -0.34375 1.25
-0.1032258 -0.3548387 1.2903225
-0.096774191 -0.3548387 1.2903225
-0.10120482 -0.39759037 1.4457831
-0.093975902 -0.39759037 1.4457831
-0.087804876 -0.40243903 1.4634147
-0.080487803 -0.40243903 1.4634147
-0.073170729 -0.40243903 1.4634147
-0.05934066 -0.36263737 1.3186814
-0.052747253 -0.36263737 1.3186814
-0.052499998 -0.41249999 1.5
-0.045000002 -0.41249999 1.5
-0.037500001 -0.41249999 1.5
-0.030379746 -0.41772151 1.5189873
-0.02117647 -0.3882353 1.4117647
-0.014117647 -0.3882353 1.4117647
-0.0071428572 -0.39285713 1.4285715
0 -0.39285713 1.4285715
0.0070588235 -0.3882353 1.4117647
0.014117647 -0.3882353 1.4117647
0.02117647 -0.3882353 1.4117647
0.028235294 -0.3882353 1.4117647
0.036585364 -0.40243903 1.4634147
0.043902438 -0.40243903 1.4634147
0.051219512 -0.40243903 1.4634147
0.058536585 -0.40243903 1.4634147
0.070129871 -0.42857143 1.5584415
0.077922076 -0.42857143 1.5584415
0.080487803 -0.40243903 1.4634147
0.087804876 -0.40243903 1.4634147
0.09512195 -0.40243903 1.4634147
0.11052632 -0.43421054 1.5789474
0.11842106 -0.43421054 1.5789474
0.12631579 -0.43421054 1.5789474
0.12439024 -0.40243903 1.4634147
0.13500001 -0.41249999 1.5
0.1425 -0.41249999 1.5
0.15000001 -0.41249999 1.5
0.1575 -0.41249999 1.5
0.16500001 -0.41249999 1.5
0.1725 -0.41249999 1.5
0.17777778 -0.4074074 1.4814814
0.18518518 -0.4074074 1.4814814
0.18571429 -0.39285713 1.4285715
0.19285715 -0.39285713 1.4285715
0.20487805 -0.40243903 1.4634147
0.21219513 -0.40243903 1.4634147
0.21951219 -0.40243903 1.4634147
0.22682928 -0.40243903 1.4634147
0.23414634 -0.40243903 1.4634147
0.26052633 -0.43421054 1.5789474
0.26842105 -0.43421054 1.5789474
0.27631578 -0.43421054 1.5789474
0.28799999 -0.44 1.6
0.296 -0.44 1.6
0.30399999 -0.44 1.6
-0.22040816 -0.33061224 1.2244898
-0.21428572 -0.33061224 1.2244898
-0.20816326 -0.33061224 1.2244898
-0.2 -0.32727271 1.2121212
-0.19393939 -0.32727271 1.2121212
-0.18787879 -0.32727271 1.2121212
-0.18181819 -0.32727271 1.2121212
-0.17575757 -0.32727271 1.2121212
-0.16969697 -0.32727271 1.2121212
-0.16363636 -0.32727271 1.2121212
-0.15757576 -0.32727271 1.2121212
-0.15306123 -0.33061224 1.2244898
-0.14693877 -0.33061224 1.2244898
-0.14081633 -0.33061224 1.2244898
-0.13469388 -0.33061224 1.2244898
-0.12989691 -0.33402061 1.2371134
-0.12371134 -0.33402061 1.2371134
-0.11875 -0.33750001 1.25
-0.1125 -0.33750001 1.25
-0.10625 -0.33750001 1.25
-0.1032258 -0.34838709 1.2903225
-0.10843374 -0.39036146 1.4457831
-0.10120482 -0.39036146 1.4457831
-0.093975902 -0.39036146 1.4457831
-0.087804876 -0.39512196 1.4634147
-0.080487803 -0.39512196 1.4634147
-0.074074075 -0.40000001 1.4814814
-0.06666667 -0.40000001 1.4814814
-0.059259258 -0.40000001 1.4814814
-0.052499998 -0.405 1.5
-0.045000002 -0.405 1.5
-0.037500001 -0.405 1.5
-0.028235294 -0.38117647 1.4117647
-0.02117647 -0.38117647 1.4117647
-0.014117647 -0.38117647 1.4117647
-0.0071428572 -0.38571429 1.4285715
0 -0.38571429 1.4285715
0.0063829785 -0.34468085 1.2765957
0.014117647 -0.38117647 1.4117647
0.02117647 -0.38117647 1.4117647
0.027906977 -0.37674418 1.3953488
0.034883723 -0.37674418 1.3953488
0.041860465 -0.37674418 1.3953488
0.048837211 -0.37674418 1.3953488
0.055813953 -0.37674418 1.3953488
0.062790699 -0.37674418 1.3953488
0.072289154 -0.39036146 1.4457831
0.079518072 -0.39036146 1.4457831
0.086746991 -0.39036146 1.4457831
0.093975902 -0.39036146 1.4457831
0.10120482 -0.39036146 1.4457831
0.10843374 -0.39036146 1.4457831
0.11566265 -0.39036146 1.4457831
0.12439024 -0.39512196 1.4634147
0.13170731 -0.39512196 1.4634147
0.1425 -0.405 1.5
0.15000001 -0.405 1.5
0.1575 -0.405 1.5
0.16500001 -0.405 1.5
0.17037037 -0.40000001 1.4814814
0.17777778 -0.40000001 1.4814814
0.18518518 -0.40000001 1.4814814
0.18571429 -0.38571429 1.4285715
0.19285715 -0.38571429 1.4285715
0.2 -0.38571429 1.4285715
0.21219513 -0.39512196 1.4634147
0.21951219 -0.39512196 1.4634147
0.22682928 -0.39512196 1.4634147
0.23414634 -0.39512196 1.4634147
0.26052633 -0.42631578 1.5789474
0.26842105 -0.42631578 1.5789474
0.28 -0.43200001 1.6
0.28799999 -0.43200001 1.6
0.296 -0.43200001 1.6
0.30399999 -0.43200001 1.6
0.31200001 -0.43200001 1.6
-0.21212122 -0.32121211 1.2121212
-0.2060606 -0.32121211 1.2121212
-0.2 -0.32121211 1.2121212
-0.19393939 -0.32121211 1.2121212
-0.18787879 -0.32121211 1.2121212
-0.18000001 -0.31799999 1.2
-0.17399999 -0.31799999 1.2
-0.16969697 -0.32121211 1.2121212
-0.162 -0.31799999 1.2
-0.156 -0.31799999 1.2
-0.15000001 -0.31799999 1.2
-0.14693877 -0.3244898 1.2244898
-0.14081633 -0.3244898 1.2244898
-0.13469388 -0.3244898 1.2244898
-0.12989691 -0.32783505 1.2371134
-0.12371134 -0.32783505 1.2371134
-0.11632653 -0.3244898 1.2244898
-0.11020408 -0.3244898 1.2244898
-0.10408163 -0.3244898 1.2244898
-0.11566265 -0.38313252 1.4457831
-0.10843374 -0.38313252 1.4457831
-0.10120482 -0.38313252 1.4457831
-0.093975902 -0.38313252 1.4457831
-0.087804876 -0.38780487 1.4634147
-0.081481479 -0.39259258 1.4814814
-0.074074075 -0.39259258 1.4814814
-0.06666667 -0.39259258 1.4814814
-0.059259258 -0.39259258 1.4814814
-0.052499998 -0.39750001 1.5
-0.045000002 -0.39750001 1.5
-0.037500001 -0.39750001 1.5
-0.029999999 -0.39750001 1.5
-0.014117647 -0.37411764 1.4117647
-0.0063829785 -0.33829787 1.2765957
0 -0.33829787 1.2765957
0.0063829785 -0.33829787 1.2765957
0.012765957 -0.33829787 1.2765957
0.020930232 -0.36976743 1.3953488
0.027906977 -0.36976743 1.3953488
0.034883723 -0.36976743 1.3953488
0.041860465 -0.36976743 1.3953488
0.048837211 -0.36976743 1.3953488
0.055813953 -0.36976743 1.3953488
0.062790699 -0.36976743 1.3953488
0.069767445 -0.36976743 1.3953488
0.07764706 -0.37411764 1.4117647
0.084705882 -0.37411764 1.4117647
0.092857145 -0.37857142 1.4285715
0.1 -0.37857142 1.4285715
0.10843374 -0.38313252 1.4457831
0.11566265 -0.38313252 1.4457831
0.12439024 -0.38780487 1.4634147
0.13170731 -0.38780487 1.4634147
0.1373494 -0.38313252 1.4457831
0.14634146 -0.38780487 1.4634147
0.15365854 -0.38780487 1.4634147
0.16097561 -0.38780487 1.4634147
0.16626506 -0.38313252 1.4457831
0.17777778 -0.39259258 1.4814814
0.18518518 -0.39259258 1.4814814
0.18571429 -0.37857142 1.4285715
0.19285715 -0.37857142 1.4285715
0.2 -0.37857142 1.4285715
0.20232558 -0.36976743 1.3953488
0.20930232 -0.36976743 1.3953488
0.21627907 -0.36976743 1.3953488
0.25600001 -0.42399999 1.6
0.264 -0.42399999 1.6
0.27200001 -0.42399999 1.6
0.28 -0.42399999 1.6
0.28799999 -0.42399999 1.6
0.296 -0.42399999 1.6
0.30399999 -0.42399999 1.6
0.31200001 -0.42399999 1.6
0.34166667 -0.44166666 1.6666666
0.34999999 -0.44166666 1.6666666
-0.21818182 -0.31515151 1.2121212
-0.21212122 -0.31515151 1.2121212
-0.2060606 -0.31515151 1.2121212
-0.2 -0.31515151 1.2121212
-0.19393939 -0.31515151 1.2121212
-0.18787879 -0.31515151 1.2121212
-0.18000001 -0.31200001 1.2
-0.17399999 -0.31200001 1.2
-0.168 -0.31200001 1.2
-0.162 -0.31200001 1.2
-0.156 -0.31200001 1.2
-0.14851485 -0.30891088 1.1881188
-0.14257425 -0.30891088 1.1881188
-0.138 -0.31200001 1.2
-0.132 -0.31200001 1.2
-0.126 -0.31200001 1.2
-0.12 -0.31200001 1.2
-0.11632653 -0.31836733 1.2244898
-0.11020408 -0.31836733 1.2244898
-0.1009901 -0.30891088 1.1881188
-0.095049508 -0.30891088 1.1881188
-0.089108914 -0.30891088 1.1881188
-0.10120482 -0.37590361 1.4457831
-0.088888891 -0.38518518 1.4814814
-0.081481479 -0.38518518 1.4814814
-0.074074075 -0.38518518 1.4814814
-0.06666667 -0.38518518 1.4814814
-0.059999999 -0.38999999 1.5
-0.052499998 -0.38999999 1.5
-0.045000002 -0.38999999 1.5
-0.037500001 -0.38999999 1.5
-0.029999999 -0.38999999 1.5
-0.022500001 -0.38999999 1.5
-0.012765957 -0.3319149 1.2765957
-0.0063829785 -0.3319149 1.2765957
0 -0.3319149 1.2765957
0.0063829785 -0.3319149 1.2765957
0.012765957 -0.3319149 1.2765957
0.019148936 -0.3319149 1.2765957
0.027906977 -0.3627907 1.3953488
0.031578947 -0.32842106 1.2631578
0.041860465 -0.3627907 1.3953488
0.048837211 -0.3627907 1.3953488
0.055813953 -0.3627907 1.3953488
0.062790699 -0.3627907 1.3953488
0.068965517 -0.3586207 1.3793104
0.075862072 -0.3586207 1.3793104
0.084705882 -0.36705881 1.4117647
0.092857145 -0.37142858 1.4285715
0.098823532 -0.36705881 1.4117647
0.10588235 -0.36705881 1.4117647
0.11294118 -0.36705881 1.4117647
0.12142857 -0.37142858 1.4285715
0.12857144 -0.37142858 1.4285715
0.1373494 -0.37590361 1.4457831
0.14634146 -0.3804878 1.4634147
0.15180723 -0.37590361 1.4457831
0.15903614 -0.37590361 1.4457831
0.16626506 -0.37590361 1.4457831
0.17349398 -0.37590361 1.4457831
0.17647059 -0.36705881 1.4117647
0.18352941 -0.36705881 1.4117647
0.18837209 -0.3627907 1.3953488
0.19534884 -0.3627907 1.3953488
0.20232558 -0.3627907 1.3953488
0.20930232 -0.3627907 1.3953488
0.21627907 -0.3627907 1.3953488
0.22325581 -0.3627907 1.3953488
0.264 -0.41600001 1.6
0.27200001 -0.41600001 1.6
0.28 -0.41600001 1.6
0.28799999 -0.41600001 1.6
0.296 -0.41600001 1.6
0.30399999 -0.41600001 1.6
0.31200001 -0.41600001 1.6
0.33333334 -0.43333334 1.6666666
0.34166667 -0.43333334 1.6666666
0.34999999 -0.43333334 1.6666666
0.35833332 -0.43333334 1.6666666
0.36666667 -0.43333334 1.6666666
0.35421687 -0.37590361 1.4457831
-0.21212122 -0.30909091 1.2121212
-0.2060606 -0.30909091 1.2121212
-0.2 -0.30909091 1.2121212
-0.19393939 -0.30909091 1.2121212
-0.18787879 -0.30909091 1.2121212
-0.18000001 -0.30599999 1.2
-0.17399999 -0.30599999 1.2
-0.168 -0.30599999 1.2
-0.162 -0.30599999 1.2
-0.156 -0.30599999 1.2
-0.14851485 -0.30297029 1.1881188
-0.14257425 -0.30297029 1.1881188
-0.13663366 -0.30297029 1.1881188
-0.132 -0.30599999 1.2
-0.126 -0.30599999 1.2
-0.12 -0.30599999 1.2
-0.114 -0.30599999 1.2
-0.108 -0.30599999 1.2
-0.1009901 -0.30297029 1.1881188
-0.095049508 -0.30297029 1.1881188
-0.088235296 -0.30000001 1.1764706
-0.082352944 -0.30000001 1.1764706
-0.076470591 -0.30000001 1.1764706
-0.088888891 -0.37777779 1.4814814
-0.081481479 -0.37777779 1.4814814
-0.074074075 -0.37777779 1.4814814
-0.06666667 -0.37777779 1.4814814
-0.059999999 -0.38249999 1.5
-0.052499998 -0.38249999 1.5
-0.045000002 -0.38249999 1.5
-0.037500001 -0.38249999 1.5
-0.029999999 -0.38249999 1.5
-0.022500001 -0.38249999 1.5
-0.0063829785 -0.32553193 1.2765957
0 -0.32553193 1.2765957
0.0063829785 -0.32553193 1.2765957
0.012765957 -0.32553193 1.2765957
0.019148936 -0.32553193 1.2765957
0.025263159 -0.32210526 1.2631578
0.031578947 -0.32210526 1.2631578
0.037894737 -0.32210526 1.2631578
0.044210527 -0.32210526 1.2631578
0.053932585 -0.34382021 1.3483146
0.062068965 -0.35172415 1.3793104
0.068965517 -0.35172415 1.3793104
0.075862072 -0.35172415 1.3793104
0.08275862 -0.35172415 1.3793104
0.091764703 -0.36000001 1.4117647
0.098823532 -0.36000001 1.4117647
0.10588235 -0.36000001 1.4117647
0.11034483 -0.35172415 1.3793104
0.12142857 -0.36428571 1.4285715
0.12857144 -0.36428571 1.4285715
0.13571429 -0.36428571 1.4285715
0.14457831 -0.3686747 1.4457831
0.15180723 -0.3686747 1.4457831
0.15903614 -0.3686747 1.4457831
0.16626506 -0.3686747 1.4457831
0.16941176 -0.36000001 1.4117647
0.17647059 -0.36000001 1.4117647
0.18352941 -0.36000001 1.4117647
0.18837209 -0.35581395 1.3953488
0.19534884 -0.35581395 1.3953488
0.20232558 -0.35581395 1.3953488
0.20930232 -0.35581395 1.3953488
0.21627907 -0.35581395 1.3953488
0.22068965 -0.35172415 1.3793104
0.22758621 -0.35172415 1.3793104
0.27567568 -0.41351351 1.6216216
0.28378379 -0.41351351 1.6216216
0.2918919 -0.41351351 1.6216216
0.296 -0.40799999 1.6
0.30399999 -0.40799999 1.6
0.32499999 -0.42500001 1.6666666
0.33333334 -0.42500001 1.6666666
0.34166667 -0.42500001 1.6666666
0.34999999 -0.42500001 1.6666666
0.35833332 -0.42500001 1.6666666
0.36666667 -0.42500001 1.6666666
0.32470587 -0.36000001 1.4117647
0.33975902 -0.3686747 1.4457831
0.34698796 -0.3686747 1.4457831
0.35421687 -0.3686747 1.4457831
0.36144578 -0.3686747 1.4457831
0.3686747 -0.3686747 1.4457831
-0.21212122 -0.30303031 1.2121212
-0.2060606 -0.30303031 1.2121212
-0.2 -0.30303031 1.2121212
-0.19393939 -0.30303031 1.2121212
-0.18787879 -0.30303031 1.2121212
-0.18000001 -0.30000001 1.2
-0.17399999 -0.30000001 1.2
-0.168 -0.30000001 1.2
-0.162 -0.30000001 1.2
-0.156 -0.30000001 1.2
-0.14851485 -0.2970297 1.1881188
-0.14257425 -0.2970297 1.1881188
-0.13663366 -0.2970297 1.1881188
-0.13069306 -0.2970297 1.1881188
-0.1223301 -0.29126215 1.1650486
-0.12 -0.30000001 1.2
-0.114 -0.30000001 1.2
-0.1069307 -0.2970297 1.1881188
-0.1009901 -0.2970297 1.1881188
-0.095049508 -0.2970297 1.1881188
-0.088235296 -0.29411766 1.1764706
-0.082352944 -0.29411766 1.1764706
-0.076470591 -0.29411766 1.1764706
-0.070588239 -0.29411766 1.1764706
-0.074074075 -0.37037036 1.4814814
-0.059999999 -0.375 1.5
-0.052499998 -0.375 1.5
-0.045000002 -0.375 1.5
-0.037500001 -0.375 1.5
-0.029999999 -0.375 1.5
-0.0063829785 -0.31914893 1.2765957
0 -0.31914893 1.2765957
0.0063829785 -0.31914893 1.2765957
0.012765957 -0.31914893 1.2765957
0.018947368 -0.31578946 1.2631578
0.025263159 -0.31578946 1.2631578
0.031578947 -0.31578946 1.2631578
0.037894737 -0.31578946 1.2631578
0.044210527 -0.31578946 1.2631578
0.053932585 -0.33707866 1.3483146
0.060674157 -0.33707866 1.3483146
0.068965517 -0.34482759 1.3793104
0.075862072 -0.34482759 1.3793104
0.08275862 -0.34482759 1.3793104
0.089655176 -0.34482759 1.3793104
0.096551724 -0.34482759 1.3793104
0.10344828 -0.34482759 1.3793104
0.11034483 -0.34482759 1.3793104
0.11724138 -0.34482759 1.3793104
0.1255814 -0.3488372 1.3953488
0.13255814 -0.3488372 1.3953488
0.13793103 -0.34482759 1.3793104
0.14651163 -0.3488372 1.3953488
0.15348837 -0.3488372 1.3953488
0.16235293 -0.35294119 1.4117647
0.16941176 -0.35294119 1.4117647
0.17647059 -0.35294119 1.4117647
0.18352941 -0.35294119 1.4117647
0.18837209 -0.3488372 1.3953488
0.19534884 -0.3488372 1.3953488
0.2 -0.34482759 1.3793104
0.20689656 -0.34482759 1.3793104
0.2137931 -0.34482759 1.3793104
0.22068965 -0.34482759 1.3793104
0.22758621 -0.34482759 1.3793104
0.23448277 -0.34482759 1.3793104
0.24137931 -0.34482759 1.3793104
0.2918919 -0.4054054 1.6216216
0.30000001 -0.4054054 1.6216216
0.31666666 -0.41666666 1.6666666
0.32499999 -0.41666666 1.6666666
0.33333334 -0.41666666 1.6666666
0.34166667 -0.41666666 1.6666666
0.34999999 -0.41666666 1.6666666
0.35833332 -0.41666666 1.6666666
0.36666667 -0.41666666 1.6666666
0.31764707 -0.35294119 1.4117647
0.32470587 -0.35294119 1.4117647
0.33975902 -0.36144578 1.4457831
0.34698796 -0.36144578 1.4457831
0.35421687 -0.36144578 1.4457831
0.36144578 -0.36144578 1.4457831
0.3686747 -0.36144578 1.4457831
-0.20816326 -0.30000001 1.2244898
-0.20204082 -0.30000001 1.2244898
-0.19591837 -0.30000001 1.2244898
-0.18979591 -0.30000001 1.2244898
-0.18181819 -0.29696971 1.2121212
-0.17575757 -0.29696971 1.2121212
-0.16969697 -0.29696971 1.2121212
-0.162 -0.294 1.2
-0.156 -0.294 1.2
-0.15151516 -0.29696971 1.2121212
-0.14545454 -0.29696971 1.2121212
-0.13269231 -0.28269231 1.1538461
-0.12815534 -0.2854369 1.1650486
-0.1223301 -0.2854369 1.1650486
-0.11650486 -0.2854369 1.1650486
-0.114 -0.294 1.2
-0.1069307 -0.29108912 1.1881188
-0.1009901 -0.29108912 1.1881188
-0.094117649 -0.28823531 1.1764706
-0.088235296 -0.28823531 1.1764706
-0.082352944 -0.28823531 1.1764706
-0.076470591 -0.28823531 1.1764706
-0.070588239 -0.28823531 1.1764706
-0.059999999 -0.36750001 1.5
-0.052499998 -0.36750001 1.5
-0.045000002 -0.36750001 1.5
-0.037500001 -0.36750001 1.5
-0.029999999 -0.36750001 1.5
0.0063829785 -0.31276596 1.2765957
0.012631579 -0.30947369 1.2631578
0.018947368 -0.30947369 1.2631578
0.025263159 -0.30947369 1.2631578
0.031578947 -0.30947369 1.2631578
0.037500001 -0.30625001 1.25
0.043749999 -0.30625001 1.25
0.053932585 -0.33033708 1.3483146
0.060674157 -0.33033708 1.3483146
0.067415729 -0.33033708 1.3483146
0.074157305 -0.33033708 1.3483146
0.080898874 -0.33033708 1.3483146
0.087640449 -0.33033708 1.3483146
0.096551724 -0.33793104 1.3793104
0.10344828 -0.33793104 1.3793104
0.11034483 -0.33793104 1.3793104
0.11724138 -0.33793104 1.3793104
0.1255814 -0.34186047 1.3953488
0.13103448 -0.33793104 1.3793104
0.13793103 -0.33793104 1.3793104
0.14651163 -0.34186047 1.3953488
0.15348837 -0.34186047 1.3953488
0.15862069 -0.33793104 1.3793104
0.16551724 -0.33793104 1.3793104
0.1744186 -0.34186047 1.3953488
0.18139535 -0.34186047 1.3953488
0.18837209 -0.34186047 1.3953488
0.19310345 -0.33793104 1.3793104
0.2 -0.33793104 1.3793104
0.20689656 -0.33793104 1.3793104
0.2137931 -0.33793104 1.3793104
0.22068965 -0.33793104 1.3793104
0.22758621 -0.33793104 1.3793104
0.23448277 -0.33793104 1.3793104
0.24137931 -0.33793104 1.3793104
0.24827586 -0.33793104 1.3793104
0.2551724 -0.33793104 1.3793104
0.31666666 -0.40833333 1.6666666
0.32499999 -0.40833333 1.6666666
0.33333334 -0.40833333 1.6666666
0.34166667 -0.40833333 1.6666666
0.34999999 -0.40833333 1.6666666
0.35833332 -0.40833333 1.6666666
0.36666667 -0.40833333 1.6666666
0.31764707 -0.34588236 1.4117647
0.32470587 -0.34588236 1.4117647
0.3317647 -0.34588236 1.4117647
0.34698796 -0.35421687 1.4457831
0.35421687 -0.35421687 1.4457831
0.36144578 -0.35421687 1.4457831
0.3686747 -0.35421687 1.4457831
0.37590361 -0.35421687 1.4457831
0.39512196 -0.35853657 1.4634147
-0.20204082 -0.29387754 1.2244898
-0.19591837 -0.29387754 1.2244898
-0.18979591 -0.29387754 1.2244898
-0.18181819 -0.29090908 1.2121212
-0.17575757 -0.29090908 1.2121212
-0.16969697 -0.29090908 1.2121212
-0.16530612 -0.29387754 1.2244898
-0.15757576 -0.29090908 1.2121212
-0.15151516 -0.29090908 1.2121212
-0.14545454 -0.29090908 1.2121212
-0.13269231 -0.27692309 1.1538461
-0.12692308 -0.27692309 1.1538461
-0.1223301 -0.27961165 1.1650486
-0.11428571 -0.2742857 1.1428572
-0.10961539 -0.27692309 1.1538461
-0.10485437 -0.27961165 1.1650486
-0.099029124 -0.27961165 1.1650486
-0.09320388 -0.27961165 1.1650486
-0.088235296 -0.28235295 1.1764706
-0.082352944 -0.28235295 1.1764706
-0.076470591 -0.28235295 1.1764706
-0.070588239 -0.28235295 1.1764706
-0.064705886 -0.28235295 1.1764706
-0.045000002 -0.36000001 1.5
0 -0.28235295 1.1764706
0.012631579 -0.3031579 1.2631578
0.018947368 -0.3031579 1.2631578
0.025263159 -0.3031579 1.2631578
0.030612245 -0.29387754 1.2244898
0.037500001 -0.30000001 1.25
0.043298971 -0.29690722 1.2371134
0.049484536 -0.29690722 1.2371134
0.059999999 -0.31999999 1.3333334
0.06666667 -0.31999999 1.3333334
0.074157305 -0.32359549 1.3483146
0.080898874 -0.32359549 1.3483146
0.087640449 -0.32359549 1.3483146
0.093333334 -0.31999999 1.3333334
0.1 -0.31999999 1.3333334
0.10666667 -0.31999999 1.3333334
0.11724138 -0.33103448 1.3793104
0.1255814 -0.33488372 1.3953488
0.13103448 -0.33103448 1.3793104
0.13793103 -0.33103448 1.3793104
0.14651163 -0.33488372 1.3953488
0.15172414 -0.33103448 1.3793104
0.15862069 -0.33103448 1.3793104
0.16551724 -0.33103448 1.3793104
0.1744186 -0.33488372 1.3953488
0.18139535 -0.33488372 1.3953488
0.18620689 -0.33103448 1.3793104
0.19310345 -0.33103448 1.3793104
0.2 -0.33103448 1.3793104
0.20689656 -0.33103448 1.3793104
0.2137931 -0.33103448 1.3793104
0.22068965 -0.33103448 1.3793104
0.22758621 -0.33103448 1.3793104
0.23448277 -0.33103448 1.3793104
0.24137931 -0.33103448 1.3793104
0.24827586 -0.33103448 1.3793104
0.25227273 -0.32727271 1.3636364
0.31666666 -0.40000001 1.6666666
0.32499999 -0.40000001 1.6666666
0.33333334 -0.40000001 1.6666666
0.34166667 -0.40000001 1.6666666
0.34999999 -0.40000001 1.6666666
0.35833332 -0.40000001 1.6666666
0.31058824 -0.33882353 1.4117647
0.31764707 -0.33882353 1.4117647
0.32470587 -0.33882353 1.4117647
0.3317647 -0.33882353 1.4117647
0.33882353 -0.33882353 1.4117647
0.35421687 -0.34698796 1.4457831
0.36144578 -0.34698796 1.4457831
0.36000001 -0.33882353 1.4117647
0.36705881 -0.33882353 1.4117647
0.38780487 -0.35121951 1.4634147
0.39512196 -0.35121951 1.4634147
0.40243903 -0.35121951 1.4634147
0.40975609 -0.35121951 1.4634147
-0.20204082 -0.2877551 1.2244898
-0.19591837 -0.2877551 1.2244898
-0.18979591 -0.2877551 1.2244898
-0.18181819 -0.28484848 1.2121212
-0.17575757 -0.28484848 1.2121212
-0.17142858 -0.2877551 1.2244898
-0.16530612 -0.2877551 1.2244898
-0.15918367 -0.2877551 1.2244898
-0.15151516 -0.28484848 1.2121212
-0.14545454 -0.28484848 1.2121212
-0.13269231 -0.27115384 1.1538461
-0.12692308 -0.27115384 1.1538461
-0.12 -0.26857144 1.1428572
-0.11428571 -0.26857144 1.1428572
-0.10961539 -0.27115384 1.1538461
-0.10384616 -0.27115384 1.1538461
-0.099029124 -0.2737864 1.1650486
-0.09142857 -0.26857144 1.1428572
-0.088235296 -0.2764706 1.1764706
-0.082352944 -0.2764706 1.1764706
-0.076470591 -0.2764706 1.1764706
-0.070588239 -0.2764706 1.1764706
-0.062264152 -0.26603773 1.1320754
-0.057142857 -0.26857144 1.1428572
-0.011764706 -0.2764706 1.1764706
-0.0058823531 -0.2764706 1.1764706
0 -0.2764706 1.1764706
0.0058823531 -0.2764706 1.1764706
0.012244898 -0.2877551 1.2244898
0.018367346 -0.2877551 1.2244898
0.024489796 -0.2877551 1.2244898
0.030612245 -0.2877551 1.2244898
0.036734693 -0.2877551 1.2244898
0.043298971 -0.29072165 1.2371134
0.049484536 -0.29072165 1.2371134
0.058695652 -0.30652174 1.3043479
0.065217391 -0.30652174 1.3043479
0.072527476 -0.30989012 1.3186814
0.079120882 -0.30989012 1.3186814
0.084782608 -0.30652174 1.3043479
0.093333334 -0.31333333 1.3333334
0.1 -0.31333333 1.3333334
0.10666667 -0.31333333 1.3333334
0.11208791 -0.30989012 1.3186814
0.12 -0.31333333 1.3333334
0.12666667 -0.31333333 1.3333334
0.13333334 -0.31333333 1.3333334
0.14157303 -0.31685394 1.3483146
0.14831461 -0.31685394 1.3483146
0.15862069 -0.32413793 1.3793104
0.16363636 -0.32045454 1.3636364
0.1744186 -0.32790697 1.3953488
0.18139535 -0.32790697 1.3953488
0.18620689 -0.32413793 1.3793104
0.19310345 -0.32413793 1.3793104
0.2 -0.32413793 1.3793104
0.20689656 -0.32413793 1.3793104
0.2137931 -0.32413793 1.3793104
0.22068965 -0.32413793 1.3793104
0.22499999 -0.32045454 1.3636364
0.23448277 -0.32413793 1.3793104
0.23863636 -0.32045454 1.3636364
0.24545455 -0.32045454 1.3636364
0.25227273 -0.32045454 1.3636364
0.2590909 -0.32045454 1.3636364
0.32499999 -0.39166668 1.6666666
0.27272728 -0.32045454 1.3636364
0.27954546 -0.32045454 1.3636364
0.28636363 -0.32045454 1.3636364
0.29318181 -0.32045454 1.3636364
0.31058824 -0.3317647 1.4117647
0.31764707 -0.3317647 1.4117647
0.32470587 -0.3317647 1.4117647
0.3317647 -0.3317647 1.4117647
0.33882353 -0.3317647 1.4117647
0.34186047 -0.32790697 1.3953488
0.3488372 -0.32790697 1.3953488
0.36000001 -0.3317647 1.4117647
0.36705881 -0.3317647 1.4117647
0.38780487 -0.34390244 1.4634147
0.39512196 -0.34390244 1.4634147
0.40243903 -0.34390244 1.4634147
0.40975609 -0.34390244 1.4634147
-0.18979591 -0.28163266 1.2244898
-0.18181819 -0.27878788 1.2121212
-0.17142858 -0.28163266 1.2244898
-0.16530612 -0.28163266 1.2244898
-0.15918367 -0.28163266 1.2244898
-0.15306123 -0.28163266 1.2244898
-0.13584906 -0.26037735 1.1320754
-0.13018867 -0.26037735 1.1320754
-0.1245283 -0.26037735 1.1320754
-0.12 -0.26285714 1.1428572
-0.11428571 -0.26285714 1.1428572
-0.10961539 -0.26538461 1.1538461
-0.10384616 -0.26538461 1.1538461
-0.09714286 -0.26285714 1.1428572
-0.09142857 -0.26285714 1.1428572
-0.085714288 -0.26285714 1.1428572
-0.082352944 -0.27058825 1.1764706
-0.073584907 -0.26037735 1.1320754
-0.067924529 -0.26037735 1.1320754
-0.062264152 -0.26037735 1.1320754
-0.057142857 -0.26285714 1.1428572
-0.051428571 -0.26285714 1.1428572
-0.045714285 -0.26285714 1.1428572
-0.011764706 -0.27058825 1.1764706
-0.0058823531 -0.27058825 1.1764706
0 -0.27058825 1.1764706
0.0058823531 -0.27058825 1.1764706
0.012244898 -0.28163266 1.2244898
0.018367346 -0.28163266 1.2244898
0.024489796 -0.28163266 1.2244898
0.030612245 -0.28163266 1.2244898
0.036734693 -0.28163266 1.2244898
0.043298971 -0.28453609 1.2371134
0.049484536 -0.28453609 1.2371134
0.058695652 -0.30000001 1.3043479
0.065217391 -0.30000001 1.3043479
0.072527476 -0.30329672 1.3186814
0.078260869 -0.30000001 1.3043479
0.084782608 -0.30000001 1.3043479
0.092307694 -0.30329672 1.3186814
0.1 -0.30666667 1.3333334
0.10549451 -0.30329672 1.3186814
0.11208791 -0.30329672 1.3186814
0.12 -0.30666667 1.3333334
0.12666667 -0.30666667 1.3333334
0.13333334 -0.30666667 1.3333334
0.14157303 -0.31011236 1.3483146
0.14831461 -0.31011236 1.3483146
0.15505618 -0.31011236 1.3483146
0.16363636 -0.31363636 1.3636364
0.17045455 -0.31363636 1.3636364
0.17931035 -0.31724137 1.3793104
0.18620689 -0.31724137 1.3793104
0.19310345 -0.31724137 1.3793104
0.2 -0.31724137 1.3793104
0.20689656 -0.31724137 1.3793104
0.2137931 -0.31724137 1.3793104
0.21818182 -0.31363636 1.3636364
0.22499999 -0.31363636 1.3636364
0.23181818 -0.31363636 1.3636364
0.23863636 -0.31363636 1.3636364
0.24545455 -0.31363636 1.3636364
0.25227273 -0.31363636 1.3636364
0.2590909 -0.31363636 1.3636364
0.26590911 -0.31363636 1.3636364
0.27272728 -0.31363636 1.3636364
0.27954546 -0.31363636 1.3636364
0.28636363 -0.31363636 1.3636364
0.29318181 -0.31363636 1.3636364
0.30000001 -0.31363636 1.3636364
0.30681819 -0.31363636 1.3636364
0.31363636 -0.31363636 1.3636364
0.32413793 -0.31724137 1.3793104
0.33103448 -0.31724137 1.3793104
0.34186047 -0.32093024 1.3953488
0.3488372 -0.32093024 1.3953488
0.36000001 -0.32470587 1.4117647
0.36705881 -0.32470587 1.4117647
0.38780487 -0.33658537 1.4634147
0.39512196 -0.33658537 1.4634147
0.40243903 -0.33658537 1.4634147
0.40975609 -0.33658537 1.4634147
0.41707316 -0.33658537 1.4634147
-0.17142858 -0.27551019 1.2244898
-0.16530612 -0.27551019 1.2244898
-0.15918367 -0.27551019 1.2244898
-0.15306123 -0.27551019 1.2244898
-0.13584906 -0.25471699 1.1320754
-0.13018867 -0.25471699 1.1320754
-0.1245283 -0.25471699 1.1320754
-0.11775701 -0.25233644 1.1214954
-0.11214953 -0.25233644 1.1214954
-0.10654206 -0.25233644 1.1214954
-0.10093458 -0.25233644 1.1214954
-0.096226417 -0.25471699 1.1320754
-0.09142857 -0.25714287 1.1428572
-0.084112152 -0.25233644 1.1214954
-0.079245284 -0.25471699 1.1320754
-0.073584907 -0.25471699 1.1320754
-0.067924529 -0.25471699 1.1320754
-0.062264152 -0.25471699 1.1320754
-0.057142857 -0.25714287 1.1428572
-0.051428571 -0.25714287 1.1428572
-0.045714285 -0.25714287 1.1428572
-0.039622642 -0.25471699 1.1320754
-0.028301887 -0.25471699 1.1320754
-0.01764706 -0.2647059 1.1764706
-0.011764706 -0.2647059 1.1764706
-0.0058823531 -0.2647059 1.1764706
0 -0.2647059 1.1764706
0.0058823531 -0.2647059 1.1764706
0.011764706 -0.2647059 1.1764706
0.018367346 -0.27551019 1.2244898
0.023762377 -0.26732674 1.1881188
0.029702971 -0.26732674 1.1881188
0.035643563 -0.26732674 1.1881188
0.04158416 -0.26732674 1.1881188
0.047524754 -0.26732674 1.1881188
0.058695652 -0.29347825 1.3043479
0.065217391 -0.29347825 1.3043479
0.07173913 -0.29347825 1.3043479
0.078260869 -0.29347825 1.3043479
0.084782608 -0.29347825 1.3043479
0.092307694 -0.29670331 1.3186814
0.096774191 -0.29032257 1.2903225
0.10549451 -0.29670331 1.3186814
0.11208791 -0.29670331 1.3186814
0.12 -0.30000001 1.3333334
0.12666667 -0.30000001 1.3333334
0.13333334 -0.30000001 1.3333334
0.14157303 -0.30337077 1.3483146
0.14831461 -0.30337077 1.3483146
0.15505618 -0.30337077 1.3483146
0.16363636 -0.30681819 1.3636364
0.17045455 -0.30681819 1.3636364
0.17727272 -0.30681819 1.3636364
0.18409091 -0.30681819 1.3636364
0.19090909 -0.30681819 1.3636364
0.2 -0.31034482 1.3793104
0.20689656 -0.31034482 1.3793104
0.2137931 -0.31034482 1.3793104
0.21818182 -0.30681819 1.3636364
0.22499999 -0.30681819 1.3636364
0.23181818 -0.30681819 1.3636364
0.23863636 -0.30681819 1.3636364
0.24545455 -0.30681819 1.3636364
0.25227273 -0.30681819 1.3636364
0.2590909 -0.30681819 1.3636364
0.26590911 -0.30681819 1.3636364
0.27272728 -0.30681819 1.3636364
0.27954546 -0.30681819 1.3636364
0.28636363 -0.30681819 1.3636364
0.29318181 -0.30681819 1.3636364
0.30000001 -0.30681819 1.3636364
0.30681819 -0.30681819 1.3636364
0.31363636 -0.30681819 1.3636364
0.32045454 -0.30681819 1.3636364
0.33103448 -0.31034482 1.3793104
0.33793104 -0.31034482 1.3793104
0.3488372 -0.31395349 1.3953488
0.36000001 -0.31764707 1.4117647
0.37590361 -0.3253012 1.4457831
0.38313252 -0.3253012 1.4457831
0.39512196 -0.32926831 1.4634147
0.40243903 -0.32926831 1.4634147
0.40975609 -0.32926831 1.4634147
0.41707316 -0.32926831 1.4634147
-0.15918367 -0.26938775 1.2244898
-0.13761468 -0.24220183 1.1009175
-0.13211009 -0.24220183 1.1009175
-0.12660551 -0.24220183 1.1009175
-0.12222222 -0.24444444 1.1111112
-0.11666667 -0.24444444 1.1111112
-0.11214953 -0.24672897 1.1214954
-0.10654206 -0.24672897 1.1214954
-0.1 -0.24444444 1.1111112
-0.096226417 -0.24905661 1.1320754
-0.089719623 -0.24672897 1.1214954
-0.084112152 -0.24672897 1.1214954
-0.079245284 -0.24905661 1.1320754
-0.073584907 -0.24905661 1.1320754
-0.067924529 -0.24905661 1.1320754
-0.062264152 -0.24905661 1.1320754
-0.057142857 -0.25142857 1.1428572
-0.051428571 -0.25142857 1.1428572
-0.04528302 -0.24905661 1.1320754
-0.039252337 -0.24672897 1.1214954
-0.033644859 -0.24672897 1.1214954
-0.028301887 -0.24905661 1.1320754
-0.02264151 -0.24905661 1.1320754
-0.016981132 -0.24905661 1.1320754
-0.011764706 -0.25882354 1.1764706
-0.0058823531 -0.25882354 1.1764706
0 -0.25882354 1.1764706
0.0058823531 -0.25882354 1.1764706
0.011764706 -0.25882354 1.1764706
0.01764706 -0.25882354 1.1764706
0.023762377 -0.26138613 1.1881188
0.029702971 -0.26138613 1.1881188
0.035643563 -0.26138613 1.1881188
0.04158416 -0.26138613 1.1881188
0.047524754 -0.26138613 1.1881188
0.053465348 -0.26138613 1.1881188
0.065217391 -0.28695652 1.3043479
0.07173913 -0.28695652 1.3043479
0.076595746 -0.28085107 1.2765957
0.082978725 -0.28085107 1.2765957
0.090322584 -0.28387097 1.2903225
0.096774191 -0.28387097 1.2903225
0.10434783 -0.28695652 1.3043479
0.11086956 -0.28695652 1.3043479
0.1173913 -0.28695652 1.3043479
0.12391304 -0.28695652 1.3043479
0.13043478 -0.28695652 1.3043479
0.13695653 -0.28695652 1.3043479
0.14347826 -0.28695652 1.3043479
0.15164836 -0.2901099 1.3186814
0.15824176 -0.2901099 1.3186814
0.16483517 -0.2901099 1.3186814
0.17142858 -0.2901099 1.3186814
0.18409091 -0.30000001 1.3636364
0.19090909 -0.30000001 1.3636364
0.19772728 -0.30000001 1.3636364
0.20454545 -0.30000001 1.3636364
0.21136364 -0.30000001 1.3636364
0.21818182 -0.30000001 1.3636364
0.22499999 -0.30000001 1.3636364
0.23181818 -0.30000001 1.3636364
0.23863636 -0.30000001 1.3636364
0.24545455 -0.30000001 1.3636364
0.25227273 -0.30000001 1.3636364
0.2590909 -0.30000001 1.3636364
0.26590911 -0.30000001 1.3636364
0.27272728 -0.30000001 1.3636364
0.27954546 -0.30000001 1.3636364
0.28636363 -0.30000001 1.3636364
0.29318181 -0.30000001 1.3636364
0.29662922 -0.29662922 1.3483146
0.30337077 -0.29662922 1.3483146
0.31363636 -0.30000001 1.3636364
0.32045454 -0.30000001 1.3636364
0.32727271 -0.30000001 1.3636364
0.33793104 -0.30344829 1.3793104
0.34482759 -0.30344829 1.3793104
0.36000001 -0.31058824 1.4117647
0.37590361 -0.31807229 1.4457831
0.38313252 -0.31807229 1.4457831
0.39512196 -0.32195121 1.4634147
0.40243903 -0.32195121 1.4634147
0.40975609 -0.32195121 1.4634147
0.41707316 -0.32195121 1.4634147
0.42439026 -0.32195121 1.4634147
-0.14862385 -0.23669724 1.1009175
-0.14311926 -0.23669724 1.1009175
-0.13761468 -0.23669724 1.1009175
-0.13211009 -0.23669724 1.1009175
-0.12660551 -0.23669724 1.1009175
-0.12110092 -0.23669724 1.1009175
-0.11666667 -0.23888889 1.1111112
-0.11009175 -0.23669724 1.1009175
-0.10458715 -0.23669724 1.1009175
-0.1 -0.23888889 1.1111112
-0.094444446 -0.23888889 1.1111112
-0.089719623 -0.2411215 1.1214954
-0.084112152 -0.2411215 1.1214954
-0.079245284 -0.24339622 1.1320754
-0.073584907 -0.24339622 1.1320754
-0.067924529 -0.24339622 1.1320754
-0.062264152 -0.24339622 1.1320754
-0.057142857 -0.24571429 1.1428572
-0.050943397 -0.24339622 1.1320754
-0.04528302 -0.24339622 1.1320754
-0.039252337 -0.2411215 1.1214954
-0.033644859 -0.2411215 1.1214954
-0.028301887 -0.24339622 1.1320754
-0.02264151 -0.24339622 1.1320754
-0.016981132 -0.24339622 1.1320754
-0.011320755 -0.24339622 1.1320754
-0.0057142857 -0.24571429 1.1428572
0 -0.24571429 1.1428572
0.0057142857 -0.24571429 1.1428572
0.011764706 -0.25294119 1.1764706
0.01764706 -0.25294119 1.1764706
0.023529412 -0.25294119 1.1764706
0.029702971 -0.25544554 1.1881188
0.035643563 -0.25544554 1.1881188
0.04158416 -0.25544554 1.1881188
0.047524754 -0.25544554 1.1881188
0.053465348 -0.25544554 1.1881188
0.059405942 -0.25544554 1.1881188
0.070212767 -0.27446809 1.2765957
0.076595746 -0.27446809 1.2765957
0.082978725 -0.27446809 1.2765957
0.089361705 -0.27446809 1.2765957
0.096774191 -0.27741936 1.2903225
0.10434783 -0.28043479 1.3043479
0.11086956 -0.28043479 1.3043479
0.1173913 -0.28043479 1.3043479
0.12391304 -0.28043479 1.3043479
0.13043478 -0.28043479 1.3043479
0.13695653 -0.28043479 1.3043479
0.14347826 -0.28043479 1.3043479
0.15164836 -0.2835165 1.3186814
0.15824176 -0.2835165 1.3186814
0.16483517 -0.2835165 1.3186814
0.17142858 -0.2835165 1.3186814
0.17802198 -0.2835165 1.3186814
0.18666667 -0.28666666 1.3333334
0.19333333 -0.28666666 1.3333334
0.20454545 -0.29318181 1.3636364
0.20898877 -0.28988764 1.3483146
0.21573034 -0.28988764 1.3483146
0.22499999 -0.29318181 1.3636364
0.23181818 -0.29318181 1.3636364
0.23863636 -0.29318181 1.3636364
0.24545455 -0.29318181 1.3636364
0.25227273 -0.29318181 1.3636364
0.2590909 -0.29318181 1.3636364
0.26590911 -0.29318181 1.3636364
0.27272728 -0.29318181 1.3636364
0.27954546 -0.29318181 1.3636364
0.28636363 -0.29318181 1.3636364
0.28988764 -0.28988764 1.3483146
0.29662922 -0.28988764 1.3483146
0.30337077 -0.28988764 1.3483146
0.31011236 -0.28988764 1.3483146
0.31685394 -0.28988764 1.3483146
0.32359549 -0.28988764 1.3483146
0.33033708 -0.28988764 1.3483146
0.33707866 -0.28988764 1.3483146
0.34 -0.28666666 1.3333334
0.34666666 -0.28666666 1.3333334
0.35730338 -0.28988764 1.3483146
0.39512196 -0.31463414 1.4634147
0.40243903 -0.31463414 1.4634147
0.40975609 -0.31463414 1.4634147
0.41707316 -0.31463414 1.4634147
-0.14862385 -0.23119266 1.1009175
-0.14311926 -0.23119266 1.1009175
-0.13761468 -0.23119266 1.1009175
-0.13211009 -0.23119266 1.1009175
-0.12660551 -0.23119266 1.1009175
-0.11891892 -0.22702703 1.081081
-0.11559633 -0.23119266 1.1009175
-0.11009175 -0.23119266 1.1009175
-0.10363636 -0.22909091 1.0909091
-0.098181821 -0.22909091 1.0909091
-0.092727274 -0.22909091 1.0909091
-0.087272726 -0.22909091 1.0909091
-0.082568809 -0.23119266 1.1009175
-0.077064224 -0.23119266 1.1009175
-0.07155963 -0.23119266 1.1009175
-0.06666667 -0.23333333 1.1111112
-0.061111111 -0.23333333 1.1111112
-0.056074765 -0.23551401 1.1214954
-0.05046729 -0.23551401 1.1214954
-0.044859812 -0.23551401 1.1214954
-0.039252337 -0.23551401 1.1214954
-0.033644859 -0.23551401 1.1214954
-0.028301887 -0.23773585 1.1320754
-0.02264151 -0.23773585 1.1320754
-0.016822429 -0.23551401 1.1214954
-0.011320755 -0.23773585 1.1320754
-0.0057142857 -0.23999999 1.1428572
0 -0.23999999 1.1428572
0.0057142857 -0.23999999 1.1428572
0.011428571 -0.23999999 1.1428572
0.01764706 -0.24705882 1.1764706
0.023529412 -0.24705882 1.1764706
0.029126214 -0.2446602 1.1650486
0.034951456 -0.2446602 1.1650486
0.04158416 -0.24950495 1.1881188
0.047524754 -0.24950495 1.1881188
0.053465348 -0.24950495 1.1881188
0.057142857 -0.23999999 1.1428572
0.070212767 -0.26808509 1.2765957
0.076595746 -0.26808509 1.2765957
0.082978725 -0.26808509 1.2765957
0.089361705 -0.26808509 1.2765957
0.095744684 -0.26808509 1.2765957
0.10434783 -0.27391306 1.3043479
0.11086956 -0.27391306 1.3043479
0.1173913 -0.27391306 1.3043479
0.12391304 -0.27391306 1.3043479
0.12903225 -0.27096775 1.2903225
0.13548388 -0.27096775 1.2903225
0.14347826 -0.27391306 1.3043479
0.15164836 -0.27692309 1.3186814
0.15483871 -0.27096775 1.2903225
0.16483517 -0.27692309 1.3186814
0.17142858 -0.27692309 1.3186814
0.17802198 -0.27692309 1.3186814
0.18461539 -0.27692309 1.3186814
0.19333333 -0.28 1.3333334
0.2 -0.28 1.3333334
0.20898877 -0.28314605 1.3483146
0.21573034 -0.28314605 1.3483146
0.22247191 -0.28314605 1.3483146
0.22921348 -0.28314605 1.3483146
0.23863636 -0.28636363 1.3636364
0.24545455 -0.28636363 1.3636364
0.25227273 -0.28636363 1.3636364
0.2590909 -0.28636363 1.3636364
0.26590911 -0.28636363 1.3636364
0.27272728 -0.28636363 1.3636364
0.2764045 -0.28314605 1.3483146
0.28314605 -0.28314605 1.3483146
0.28988764 -0.28314605 1.3483146
0.29662922 -0.28314605 1.3483146
0.30337077 -0.28314605 1.3483146
0.31011236 -0.28314605 1.3483146
0.31685394 -0.28314605 1.3483146
0.32359549 -0.28314605 1.3483146
0.33033708 -0.28314605 1.3483146
0.33707866 -0.28314605 1.3483146
0.34 -0.28 1.3333334
0.34666666 -0.28 1.3333334
0.35730338 -0.28314605 1.3483146
0.36404493 -0.28314605 1.3483146
0.40243903 -0.30731708 1.4634147
0.40975609 -0.30731708 1.4634147
0.41707316 -0.30731708 1.4634147
-0.15412845 -0.22568807 1.1009175
-0.14862385 -0.22568807 1.1009175
-0.14311926 -0.22568807 1.1009175
-0.13761468 -0.22568807 1.1009175
-0.13211009 -0.22568807 1.1009175
-0.12432432 -0.22162162 1.081081
-0.11891892 -0.22162162 1.081081
-0.11351351 -0.22162162 1.081081
-0.11009175 -0.22568807 1.1009175
-0.10363636 -0.22363636 1.0909091
-0.098181821 -0.22363636 1.0909091
-0.092727274 -0.22363636 1.0909091
-0.087272726 -0.22363636 1.0909091
-0.081818178 -0.22363636 1.0909091
-0.077064224 -0.22568807 1.1009175
-0.07155963 -0.22568807 1.1009175
-0.06666667 -0.22777778 1.1111112
-0.061111111 -0.22777778 1.1111112
-0.056074765 -0.22990654 1.1214954
-0.05046729 -0.22990654 1.1214954
-0.044444446 -0.22777778 1.1111112
-0.03888889 -0.22777778 1.1111112
