# .PCD v0.7 - Point Cloud Data file format
VERSION 0.7
FIELDS x y z
SIZE 4 4 4
TYPE F F F
COUNT 1 1 1
WIDTH 1479
HEIGHT 1
VIEWPOINT 0 0 0 1 0 0 0
POINTS 1479
DATA ascii
-0.3505618 0.020224718 1.3483146
-0.34 0.02 1.3333334
-0.32967034 0.01978022 1.3186814
-0.31956521 0.019565217 1.3043479
-0.30967742 0.019354839 1.2903225
-0.30000001 0.019148936 1.2765957
-0.29052633 0.018947368 1.2631578
-0.28125 0.018750001 1.25
-0.27216494 0.018556701 1.2371134
-0.26326531 0.018367346 1.2244898
-0.252 0.017999999 1.2
-0.24600001 0.017999999 1.2
-0.23999999 0.017999999 1.2
-0.234 0.017999999 1.2
-0.21509434 0.016981132 1.1320754
-0.20943396 0.016981132 1.1320754
-0.20377359 0.016981132 1.1320754
-0.19626169 0.016822429 1.1214954
-0.1906542 0.016822429 1.1214954
-0.18504673 0.016822429 1.1214954
-0.17943925 0.016822429 1.1214954
-0.16034482 0.015517241 1.0344827
-0.15517241 0.015517241 1.0344827
-0.15000001 0.015517241 1.0344827
-0.14237288 0.015254238 1.0169492
-0.13728814 0.015254238 1.0169492
-0.13220339 0.015254238 1.0169492
-0.125 0.015 1
-0.12 0.015 1
-0.115 0.015 1
-0.11 0.015 1
-0.105 0.015 1
-0.1 0.015 1
-0.095798321 0.01512605 1.0084034
-0.090756305 0.01512605 1.0084034
-0.085714288 0.01512605 1.0084034
-0.080672272 0.01512605 1.0084034
-0.076271184 0.015254238 1.0169492
-0.071794875 0.015384615 1.0256411
-0.06666667 0.015384615 1.0256411
-0.062068965 0.015517241 1.0344827
-0.056896552 0.015517241 1.0344827
-0.05172414 0.015517241 1.0344827
-0.046956521 0.015652174 1.0434783
-0.041739132 0.015652174 1.0434783
-0.03652174 0.015652174 1.0434783
-0.031304348 0.015652174 1.0434783
-0.026086956 0.015652174 1.0434783
-0.020869566 0.015652174 1.0434783
-0.015652174 0.015652174 1.0434783
-0.010434783 0.015652174 1.0434783
-0.0052631581 0.015789473 1.0526316
0 0.015789473 1.0526316
0.0052631581 0.015789473 1.0526316
0.010526316 0.015789473 1.0526316
0.015789473 0.015789473 1.0526316
0.021052632 0.015789473 1.0526316
0.026548672 0.015929203 1.0619469
0.031858407 0.015929203 1.0619469
0.037168141 0.015929203 1.0619469
0.042857144 0.016071429 1.0714285
0.048214287 0.016071429 1.0714285
0.053571429 0.016071429 1.0714285
0.058928572 0.016071429 1.0714285
0.064864866 0.016216217 1.081081
0.07027027 0.016216217 1.081081
0.075675674 0.016216217 1.081081
0.081081077 0.016216217 1.081081
0.087272726 0.016363636 1.0909091
0.092727274 0.016363636 1.0909091
0.098181821 0.016363636 1.0909091
0.10458715 0.016513761 1.1009175
0.11009175 0.016513761 1.1009175
0.11559633 0.016513761 1.1009175
0.12222222 0.016666668 1.1111112
0.12777779 0.016666668 1.1111112
0.13457943 0.016822429 1.1214954
0.14018692 0.016822429 1.1214954
0.14716981 0.016981132 1.1320754
0.15428571 0.017142856 1.1428572
0.16 0.017142856 1.1428572
0.16730769 0.017307693 1.1538461
0.17307693 0.017307693 1.1538461
0.17884615 0.017307693 1.1538461
0.18640776 0.017475728 1.1650486
0.19411765 0.01764706 1.1764706
0.2 0.01764706 1.1764706
0.20588236 0.01764706 1.1764706
0.21176471 0.01764706 1.1764706
-0.4517647 0.028235294 1.4117647
-0.43953487 0.027906977 1.3953488
-0.43255815 0.027906977 1.3953488
-0.4255814 0.027906977 1.3953488
-0.41860464 0.027906977 1.3953488
-0.41162792 0.027906977 1.3953488
-0.40000001 0.027586207 1.3793104
-0.39767441 0.027906977 1.3953488
-0.39069769 0.027906977 1.3953488
-0.38372093 0.027906977 1.3953488
-0.37241378 0.027586207 1.3793104
-0.35730338 0.026966292 1.3483146
-0.3505618 0.026966292 1.3483146
-0.33626375 0.026373627 1.3186814
-0.32967034 0.026373627 1.3186814
-0.32307693 0.026373627 1.3186814
-0.30967742 0.025806451 1.2903225
-0.30000001 0.025531914 1.2765957
-0.28749999 0.025 1.25
-0.28125 0.025 1.25
-0.27500001 0.025 1.25
-0.26326531 0.024489796 1.2244898
-0.252 0.024 1.2
-0.24600001 0.024 1.2
-0.23999999 0.024 1.2
-0.21666667 0.022222223 1.1111112
-0.21509434 0.02264151 1.1320754
-0.20943396 0.02264151 1.1320754
-0.2 0.022222223 1.1111112
-0.19444445 0.022222223 1.1111112
-0.18888889 0.022222223 1.1111112
-0.18333334 0.022222223 1.1111112
-0.17777778 0.022222223 1.1111112
-0.16173913 0.020869566 1.0434783
-0.15517241 0.020689655 1.0344827
-0.14745763 0.020338982 1.0169492
-0.14237288 0.020338982 1.0169492
-0.13728814 0.020338982 1.0169492
-0.13 0.02 1
-0.125 0.02 1
-0.12 0.02 1
-0.115 0.02 1
-0.11 0.02 1
-0.105 0.02 1
-0.1 0.02 1
-0.094999999 0.02 1
-0.090756305 0.020168068 1.0084034
-0.085714288 0.020168068 1.0084034
-0.081355929 0.020338982 1.0169492
-0.076271184 0.020338982 1.0169492
-0.071186438 0.020338982 1.0169492
-0.06666667 0.020512821 1.0256411
-0.062068965 0.020689655 1.0344827
-0.056896552 0.020689655 1.0344827
-0.05172414 0.020689655 1.0344827
-0.046551723 0.020689655 1.0344827
-0.041739132 0.020869566 1.0434783
-0.03652174 0.020869566 1.0434783
-0.031304348 0.020869566 1.0434783
-0.026086956 0.020869566 1.0434783
-0.020869566 0.020869566 1.0434783
-0.015652174 0.020869566 1.0434783
-0.010434783 0.020869566 1.0434783
-0.0052173915 0.020869566 1.0434783
0 0.020869566 1.0434783
0.0052173915 0.020869566 1.0434783
0.010526316 0.021052632 1.0526316
0.015789473 0.021052632 1.0526316
0.021052632 0.021052632 1.0526316
0.02631579 0.021052632 1.0526316
0.031858407 0.021238938 1.0619469
0.037168141 0.021238938 1.0619469
0.042857144 0.021428572 1.0714285
0.048214287 0.021428572 1.0714285
0.053571429 0.021428572 1.0714285
0.058928572 0.021428572 1.0714285
0.064285718 0.021428572 1.0714285
0.069642857 0.021428572 1.0714285
0.075675674 0.021621622 1.081081
0.081081077 0.021621622 1.081081
0.087272726 0.021818181 1.0909091
0.092727274 0.021818181 1.0909091
0.098181821 0.021818181 1.0909091
0.10458715 0.022018349 1.1009175
0.11009175 0.022018349 1.1009175
0.11559633 0.022018349 1.1009175
0.12222222 0.022222223 1.1111112
0.12777779 0.022222223 1.1111112
0.13333334 0.022222223 1.1111112
0.1388889 0.022222223 1.1111112
0.14857143 0.022857143 1.1428572
0.15428571 0.022857143 1.1428572
0.16 0.022857143 1.1428572
0.16730769 0.023076924 1.1538461
0.17307693 0.023076924 1.1538461
0.18058252 0.02330097 1.1650486
0.18640776 0.02330097 1.1650486
0.19411765 0.023529412 1.1764706
0.2 0.023529412 1.1764706
0.23076923 0.026373627 1.3186814
0.23736264 0.026373627 1.3186814
0.24395604 0.026373627 1.3186814
-0.43953487 0.034883723 1.3953488
-0.43255815 0.034883723 1.3953488
-0.4255814 0.034883723 1.3953488
-0.41379312 0.034482758 1.3793104
-0.40689656 0.034482758 1.3793104
-0.40000001 0.034482758 1.3793104
-0.39310345 0.034482758 1.3793104
-0.3862069 0.034482758 1.3793104
-0.375 0.03409091 1.3636364
-0.36818182 0.03409091 1.3636364
-0.35333332 0.033333335 1.3333334
-0.34666666 0.033333335 1.3333334
-0.33626375 0.032967035 1.3186814
-0.32967034 0.032967035 1.3186814
-0.31612903 0.032258064 1.2903225
-0.30638298 0.031914894 1.2765957
-0.30000001 0.031914894 1.2765957
-0.28453609 0.030927835 1.2371134
-0.2783505 0.030927835 1.2371134
-0.26938775 0.030612245 1.2244898
-0.26326531 0.030612245 1.2244898
-0.25714287 0.030612245 1.2244898
-0.24600001 0.029999999 1.2
-0.22222222 0.027777778 1.1111112
-0.21666667 0.027777778 1.1111112
-0.21111111 0.027777778 1.1111112
-0.20366973 0.027522936 1.1009175
-0.2 0.027777778 1.1111112
-0.19266056 0.027522936 1.1009175
-0.18888889 0.027777778 1.1111112
-0.18333334 0.027777778 1.1111112
-0.17142858 0.026785715 1.0714285
-0.16173913 0.026086956 1.0434783
-0.15517241 0.02586207 1.0344827
-0.15000001 0.02586207 1.0344827
-0.14117648 0.025210084 1.0084034
-0.13613446 0.025210084 1.0084034
-0.13109244 0.025210084 1.0084034
-0.125 0.025 1
-0.12 0.025 1
-0.115 0.025 1
-0.11 0.025 1
-0.105 0.025 1
-0.1 0.025 1
-0.094999999 0.025 1
-0.090756305 0.025210084 1.0084034
-0.085714288 0.025210084 1.0084034
-0.081355929 0.025423728 1.0169492
-0.076271184 0.025423728 1.0169492
-0.071186438 0.025423728 1.0169492
-0.066101693 0.025423728 1.0169492
-0.062068965 0.02586207 1.0344827
-0.056896552 0.02586207 1.0344827
-0.05172414 0.02586207 1.0344827
-0.046551723 0.02586207 1.0344827
-0.041739132 0.026086956 1.0434783
-0.03652174 0.026086956 1.0434783
-0.031034483 0.02586207 1.0344827
-0.026086956 0.026086956 1.0434783
-0.020869566 0.026086956 1.0434783
-0.015652174 0.026086956 1.0434783
-0.010434783 0.026086956 1.0434783
-0.0052173915 0.026086956 1.0434783
0 0.026086956 1.0434783
0.0052173915 0.026086956 1.0434783
0.010526316 0.02631579 1.0526316
0.015789473 0.02631579 1.0526316
0.021052632 0.02631579 1.0526316
0.02631579 0.02631579 1.0526316
0.031858407 0.026548672 1.0619469
0.037168141 0.026548672 1.0619469
0.042477876 0.026548672 1.0619469
0.048214287 0.026785715 1.0714285
0.053571429 0.026785715 1.0714285
0.058928572 0.026785715 1.0714285
0.064285718 0.026785715 1.0714285
0.07027027 0.027027028 1.081081
0.075675674 0.027027028 1.081081
0.081081077 0.027027028 1.081081
0.087272726 0.027272727 1.0909091
0.092727274 0.027272727 1.0909091
0.098181821 0.027272727 1.0909091
0.10458715 0.027522936 1.1009175
0.11009175 0.027522936 1.1009175
0.11559633 0.027522936 1.1009175
0.12222222 0.027777778 1.1111112
0.12777779 0.027777778 1.1111112
0.13333334 0.027777778 1.1111112
0.1388889 0.027777778 1.1111112
0.14579439 0.028037382 1.1214954
0.15428571 0.028571429 1.1428572
0.16153847 0.028846154 1.1538461
0.16730769 0.028846154 1.1538461
0.17307693 0.028846154 1.1538461
0.17884615 0.028846154 1.1538461
0.18640776 0.029126214 1.1650486
0.19223301 0.029126214 1.1650486
0.2019802 0.029702971 1.1881188
0.23076923 0.032967035 1.3186814
0.23736264 0.032967035 1.3186814
0.24395604 0.032967035 1.3186814
-0.43953487 0.041860465 1.3953488
-0.4275862 0.04137931 1.3793104
-0.42068964 0.04137931 1.3793104
-0.41379312 0.04137931 1.3793104
-0.40689656 0.04137931 1.3793104
-0.40000001 0.04137931 1.3793104
-0.39310345 0.04137931 1.3793104
-0.3862069 0.04137931 1.3793104
-0.375 0.040909089 1.3636364
-0.36818182 0.040909089 1.3636364
-0.35730338 0.040449437 1.3483146
-0.34666666 0.039999999 1.3333334
-0.33626375 0.039560441 1.3186814
-0.32258064 0.038709678 1.2903225
-0.31612903 0.038709678 1.2903225
-0.30638298 0.038297873 1.2765957
-0.30000001 0.038297873 1.2765957
-0.28453609 0.037113402 1.2371134
-0.2783505 0.037113402 1.2371134
-0.26938775 0.036734693 1.2244898
-0.26326531 0.036734693 1.2244898
-0.25714287 0.036734693 1.2244898
-0.22990654 0.033644859 1.1214954
-0.22222222 0.033333335 1.1111112
-0.21666667 0.033333335 1.1111112
-0.21111111 0.033333335 1.1111112
-0.20366973 0.033027522 1.1009175
-0.19816513 0.033027522 1.1009175
-0.19266056 0.033027522 1.1009175
-0.18715596 0.033027522 1.1009175
-0.17678571 0.032142859 1.0714285
-0.17142858 0.032142859 1.0714285
-0.16173913 0.031304348 1.0434783
-0.15517241 0.031034483 1.0344827
-0.15000001 0.031034483 1.0344827
-0.14237288 0.030508475 1.0169492
-0.13613446 0.030252101 1.0084034
-0.13109244 0.030252101 1.0084034
-0.12605043 0.030252101 1.0084034
-0.12 0.029999999 1
-0.115 0.029999999 1
-0.11 0.029999999 1
-0.105 0.029999999 1
-0.1 0.029999999 1
-0.094999999 0.029999999 1
-0.090756305 0.030252101 1.0084034
-0.085714288 0.030252101 1.0084034
-0.080672272 0.030252101 1.0084034
-0.075630255 0.030252101 1.0084034
-0.071186438 0.030508475 1.0169492
-0.066101693 0.030508475 1.0169492
-0.061016951 0.030508475 1.0169492
-0.056896552 0.031034483 1.0344827
-0.05172414 0.031034483 1.0344827
-0.046551723 0.031034483 1.0344827
-0.04137931 0.031034483 1.0344827
-0.036206897 0.031034483 1.0344827
-0.031034483 0.031034483 1.0344827
-0.02586207 0.031034483 1.0344827
-0.020689655 0.031034483 1.0344827
-0.015652174 0.031304348 1.0434783
-0.010344828 0.031034483 1.0344827
-0.0051724138 0.031034483 1.0344827
0 0.031304348 1.0434783
0.0052173915 0.031304348 1.0434783
0.010434783 0.031304348 1.0434783
0.015652174 0.031304348 1.0434783
0.021052632 0.031578947 1.0526316
0.02631579 0.031578947 1.0526316
0.031858407 0.031858407 1.0619469
0.037168141 0.031858407 1.0619469
0.042477876 0.031858407 1.0619469
0.048214287 0.032142859 1.0714285
0.053571429 0.032142859 1.0714285
0.058928572 0.032142859 1.0714285
0.064285718 0.032142859 1.0714285
0.07027027 0.032432433 1.081081
0.075675674 0.032432433 1.081081
0.081081077 0.032432433 1.081081
0.087272726 0.032727271 1.0909091
0.092727274 0.032727271 1.0909091
0.098181821 0.032727271 1.0909091
0.10363636 0.032727271 1.0909091
0.11009175 0.033027522 1.1009175
0.11559633 0.033027522 1.1009175
0.12110092 0.033027522 1.1009175
0.12660551 0.033027522 1.1009175
0.13333334 0.033333335 1.1111112
0.1388889 0.033333335 1.1111112
0.14579439 0.033644859 1.1214954
0.15283018 0.033962265 1.1320754
0.15849057 0.033962265 1.1320754
0.16730769 0.034615386 1.1538461
0.17307693 0.034615386 1.1538461
0.18058252 0.034951456 1.1650486
0.18640776 0.034951456 1.1650486
0.1960396 0.035643563 1.1881188
0.2019802 0.035643563 1.1881188
0.23076923 0.039560441 1.3186814
0.23736264 0.039560441 1.3186814
0.24395604 0.039560441 1.3186814
0.25054947 0.039560441 1.3186814
-0.4275862 0.048275862 1.3793104
-0.42068964 0.048275862 1.3793104
-0.41379312 0.048275862 1.3793104
-0.40689656 0.048275862 1.3793104
-0.40000001 0.048275862 1.3793104
-0.39310345 0.048275862 1.3793104
-0.38181818 0.047727272 1.3636364
-0.375 0.047727272 1.3636364
-0.36818182 0.047727272 1.3636364
-0.35730338 0.047191013 1.3483146
-0.3505618 0.047191013 1.3483146
-0.33626375 0.046153847 1.3186814
-0.32258064 0.045161292 1.2903225
-0.31612903 0.045161292 1.2903225
-0.30638298 0.044680852 1.2765957
-0.30000001 0.044680852 1.2765957
-0.28453609 0.043298971 1.2371134
-0.2783505 0.043298971 1.2371134
-0.26938775 0.042857144 1.2244898
-0.24571429 0.039999999 1.1428572
-0.23999999 0.039999999 1.1428572
-0.22990654 0.039252337 1.1214954
-0.22429906 0.039252337 1.1214954
-0.21666667 0.03888889 1.1111112
-0.21111111 0.03888889 1.1111112
-0.20366973 0.038532112 1.1009175
-0.19636364 0.038181819 1.0909091
-0.19090909 0.038181819 1.0909091
-0.18545455 0.038181819 1.0909091
-0.17678571 0.037500001 1.0714285
-0.17142858 0.037500001 1.0714285
-0.16173913 0.03652174 1.0434783
-0.15517241 0.036206897 1.0344827
-0.14745763 0.035593219 1.0169492
-0.14237288 0.035593219 1.0169492
-0.13613446 0.035294119 1.0084034
-0.13109244 0.035294119 1.0084034
-0.12605043 0.035294119 1.0084034
-0.12 0.035 1
-0.115 0.035 1
-0.11 0.035 1
-0.105 0.035 1
-0.1 0.035 1
-0.094999999 0.035 1
-0.090756305 0.035294119 1.0084034
-0.085714288 0.035294119 1.0084034
-0.080672272 0.035294119 1.0084034
-0.075630255 0.035294119 1.0084034
-0.070588239 0.035294119 1.0084034
-0.066101693 0.035593219 1.0169492
-0.061016951 0.035593219 1.0169492
-0.056896552 0.036206897 1.0344827
-0.05172414 0.036206897 1.0344827
-0.046551723 0.036206897 1.0344827
-0.04137931 0.036206897 1.0344827
-0.036206897 0.036206897 1.0344827
-0.031034483 0.036206897 1.0344827
-0.02586207 0.036206897 1.0344827
-0.020689655 0.036206897 1.0344827
-0.015517241 0.036206897 1.0344827
-0.010344828 0.036206897 1.0344827
-0.0051724138 0.036206897 1.0344827
0 0.036206897 1.0344827
0.0051724138 0.036206897 1.0344827
0.010434783 0.03652174 1.0434783
0.015652174 0.03652174 1.0434783
0.020869566 0.03652174 1.0434783
0.026086956 0.03652174 1.0434783
0.031858407 0.037168141 1.0619469
0.037168141 0.037168141 1.0619469
0.042477876 0.037168141 1.0619469
0.04778761 0.037168141 1.0619469
0.053571429 0.037500001 1.0714285
0.058928572 0.037500001 1.0714285
0.064285718 0.037500001 1.0714285
0.07027027 0.037837837 1.081081
0.075675674 0.037837837 1.081081
0.081081077 0.037837837 1.081081
0.086486489 0.037837837 1.081081
0.092727274 0.038181819 1.0909091
0.098181821 0.038181819 1.0909091
0.10363636 0.038181819 1.0909091
0.10909091 0.038181819 1.0909091
0.11559633 0.038532112 1.1009175
0.12110092 0.038532112 1.1009175
0.12660551 0.038532112 1.1009175
0.13333334 0.03888889 1.1111112
0.1388889 0.03888889 1.1111112
0.14579439 0.039252337 1.1214954
0.15283018 0.039622642 1.1320754
0.15849057 0.039622642 1.1320754
0.16571428 0.039999999 1.1428572
0.17475729 0.0407767 1.1650486
0.18058252 0.0407767 1.1650486
0.18640776 0.0407767 1.1650486
0.1960396 0.04158416 1.1881188
0.2019802 0.04158416 1.1881188
0.23076923 0.046153847 1.3186814
0.23736264 0.046153847 1.3186814
0.24395604 0.046153847 1.3186814
-0.42272729 0.054545455 1.3636364
-0.41590908 0.054545455 1.3636364
-0.40909091 0.054545455 1.3636364
-0.40227273 0.054545455 1.3636364
-0.39545456 0.054545455 1.3636364
-0.38863635 0.054545455 1.3636364
-0.38181818 0.054545455 1.3636364
-0.375 0.054545455 1.3636364
-0.36404493 0.053932585 1.3483146
-0.35333332 0.053333335 1.3333334
-0.34666666 0.053333335 1.3333334
-0.34 0.053333335 1.3333334
-0.32258064 0.051612902 1.2903225
-0.31276596 0.051063828 1.2765957
-0.30638298 0.051063828 1.2765957
-0.30000001 0.051063828 1.2765957
-0.29361701 0.051063828 1.2765957
-0.2783505 0.049484536 1.2371134
-0.25142857 0.045714285 1.1428572
-0.24571429 0.045714285 1.1428572
-0.23999999 0.045714285 1.1428572
-0.22990654 0.044859812 1.1214954
-0.22429906 0.044859812 1.1214954
-0.21869159 0.044859812 1.1214954
-0.20727272 0.043636363 1.0909091
-0.20181818 0.043636363 1.0909091
-0.19459459 0.043243244 1.081081
-0.1891892 0.043243244 1.081081
-0.18378378 0.043243244 1.081081
-0.17217392 0.041739132 1.0434783
-0.16695653 0.041739132 1.0434783
-0.16173913 0.041739132 1.0434783
-0.15254237 0.040677965 1.0169492
-0.14745763 0.040677965 1.0169492
-0.14237288 0.040677965 1.0169492
-0.13613446 0.040336136 1.0084034
-0.13109244 0.040336136 1.0084034
-0.12605043 0.040336136 1.0084034
-0.12 0.039999999 1
-0.115 0.039999999 1
-0.11 0.039999999 1
-0.105 0.039999999 1
-0.1 0.039999999 1
-0.094999999 0.039999999 1
-0.090000004 0.039999999 1
-0.085000001 0.039999999 1
-0.080672272 0.040336136 1.0084034
-0.075630255 0.040336136 1.0084034
-0.070588239 0.040336136 1.0084034
-0.066101693 0.040677965 1.0169492
-0.061016951 0.040677965 1.0169492
-0.056896552 0.04137931 1.0344827
-0.05172414 0.04137931 1.0344827
-0.046551723 0.04137931 1.0344827
-0.04137931 0.04137931 1.0344827
-0.036206897 0.04137931 1.0344827
-0.031034483 0.04137931 1.0344827
-0.02586207 0.04137931 1.0344827
-0.020689655 0.04137931 1.0344827
-0.015517241 0.04137931 1.0344827
-0.010344828 0.04137931 1.0344827
-0.0051724138 0.04137931 1.0344827
0 0.04137931 1.0344827
0.0051724138 0.04137931 1.0344827
0.010434783 0.041739132 1.0434783
0.015652174 0.041739132 1.0434783
0.020869566 0.041739132 1.0434783
0.026086956 0.041739132 1.0434783
0.031304348 0.041739132 1.0434783
0.037168141 0.042477876 1.0619469
0.042477876 0.042477876 1.0619469
0.04778761 0.042477876 1.0619469
0.053571429 0.042857144 1.0714285
0.058928572 0.042857144 1.0714285
0.064285718 0.042857144 1.0714285
0.07027027 0.043243244 1.081081
0.075675674 0.043243244 1.081081
0.081081077 0.043243244 1.081081
0.086486489 0.043243244 1.081081
0.092727274 0.043636363 1.0909091
0.098181821 0.043636363 1.0909091
0.10363636 0.043636363 1.0909091
0.10909091 0.043636363 1.0909091
0.11559633 0.044036698 1.1009175
0.12110092 0.044036698 1.1009175
0.12660551 0.044036698 1.1009175
0.13333334 0.044444446 1.1111112
0.1388889 0.044444446 1.1111112
0.14444445 0.044444446 1.1111112
0.15000001 0.044444446 1.1111112
0.16 0.045714285 1.1428572
0.16571428 0.045714285 1.1428572
0.17142858 0.045714285 1.1428572
0.18058252 0.04660194 1.1650486
0.18640776 0.04660194 1.1650486
0.19223301 0.04660194 1.1650486
0.2060606 0.048484847 1.2121212
0.21212122 0.048484847 1.2121212
0.21818182 0.048484847 1.2121212
0.22424242 0.048484847 1.2121212
-0.42954546 0.061363637 1.3636364
-0.42272729 0.061363637 1.3636364
-0.41590908 0.061363637 1.3636364
-0.40909091 0.061363637 1.3636364
-0.40227273 0.061363637 1.3636364
-0.39545456 0.061363637 1.3636364
-0.38863635 0.061363637 1.3636364
-0.38181818 0.061363637 1.3636364
-0.375 0.061363637 1.3636364
-0.36404493 0.060674157 1.3483146
-0.35333332 0.059999999 1.3333334
-0.34666666 0.059999999 1.3333334
-0.34 0.059999999 1.3333334
-0.32258064 0.058064517 1.2903225
-0.31612903 0.058064517 1.2903225
-0.30638298 0.057446808 1.2765957
-0.30000001 0.057446808 1.2765957
-0.29361701 0.057446808 1.2765957
-0.25714287 0.051428571 1.1428572
-0.25142857 0.051428571 1.1428572
-0.24571429 0.051428571 1.1428572
-0.23999999 0.051428571 1.1428572
-0.22990654 0.05046729 1.1214954
-0.22429906 0.05046729 1.1214954
-0.21272728 0.049090911 1.0909091
-0.20727272 0.049090911 1.0909091
-0.20181818 0.049090911 1.0909091
-0.19459459 0.048648648 1.081081
-0.1891892 0.048648648 1.081081
-0.17894737 0.047368422 1.0526316
-0.17217392 0.046956521 1.0434783
-0.16695653 0.046956521 1.0434783
-0.16173913 0.046956521 1.0434783
-0.15384616 0.046153847 1.0256411
-0.14745763 0.04576271 1.0169492
-0.14117648 0.045378152 1.0084034
-0.13613446 0.045378152 1.0084034
-0.13109244 0.045378152 1.0084034
-0.125 0.045000002 1
-0.12 0.045000002 1
-0.115 0.045000002 1
-0.11 0.045000002 1
-0.105 0.045000002 1
-0.1 0.045000002 1
-0.094999999 0.045000002 1
-0.090000004 0.045000002 1
-0.085000001 0.045000002 1
-0.080672272 0.045378152 1.0084034
-0.075630255 0.045378152 1.0084034
-0.071186438 0.04576271 1.0169492
-0.066101693 0.04576271 1.0169492
-0.061016951 0.04576271 1.0169492
-0.056896552 0.046551723 1.0344827
-0.05172414 0.046551723 1.0344827
-0.046551723 0.046551723 1.0344827
-0.04137931 0.046551723 1.0344827
-0.036206897 0.046551723 1.0344827
-0.031034483 0.046551723 1.0344827
-0.02586207 0.046551723 1.0344827
-0.020689655 0.046551723 1.0344827
-0.015517241 0.046551723 1.0344827
-0.010344828 0.046551723 1.0344827
-0.0051724138 0.046551723 1.0344827
0 0.046551723 1.0344827
0.0051724138 0.046551723 1.0344827
0.010344828 0.046551723 1.0344827
0.015652174 0.046956521 1.0434783
0.020869566 0.046956521 1.0434783
0.026086956 0.046956521 1.0434783
0.031578947 0.047368422 1.0526316
0.036842104 0.047368422 1.0526316
0.042105265 0.047368422 1.0526316
0.04778761 0.04778761 1.0619469
0.053571429 0.048214287 1.0714285
0.058928572 0.048214287 1.0714285
0.064285718 0.048214287 1.0714285
0.07027027 0.048648648 1.081081
0.075675674 0.048648648 1.081081
0.081081077 0.048648648 1.081081
0.086486489 0.048648648 1.081081
0.091891892 0.048648648 1.081081
0.098181821 0.049090911 1.0909091
0.10363636 0.049090911 1.0909091
0.10909091 0.049090911 1.0909091
0.11559633 0.049541283 1.1009175
0.12110092 0.049541283 1.1009175
0.12660551 0.049541283 1.1009175
0.13333334 0.050000001 1.1111112
0.1388889 0.050000001 1.1111112
0.14444445 0.050000001 1.1111112
0.15283018 0.050943397 1.1320754
0.15849057 0.050943397 1.1320754
0.16571428 0.051428571 1.1428572
0.17307693 0.051923078 1.1538461
0.18058252 0.052427184 1.1650486
0.18640776 0.052427184 1.1650486
0.19411765 0.052941177 1.1764706
0.2060606 0.054545455 1.2121212
0.21212122 0.054545455 1.2121212
0.21818182 0.054545455 1.2121212
0.22424242 0.054545455 1.2121212
0.23030303 0.054545455 1.2121212
-0.42272729 0.06818182 1.3636364
-0.41590908 0.06818182 1.3636364
-0.40909091 0.06818182 1.3636364
-0.39775282 0.067415729 1.3483146
-0.39101124 0.067415729 1.3483146
-0.38426965 0.067415729 1.3483146
-0.38181818 0.06818182 1.3636364
-0.37078652 0.067415729 1.3483146
-0.36404493 0.067415729 1.3483146
-0.35333332 0.06666667 1.3333334
-0.34666666 0.06666667 1.3333334
-0.3326087 0.065217391 1.3043479
-0.32608697 0.065217391 1.3043479
-0.31612903 0.064516127 1.2903225
-0.3031579 0.063157894 1.2631578
-0.2968421 0.063157894 1.2631578
-0.26796117 0.058252428 1.1650486
-0.27272728 0.060606062 1.2121212
-0.25142857 0.057142857 1.1428572
-0.24571429 0.057142857 1.1428572
-0.23999999 0.057142857 1.1428572
-0.23428571 0.057142857 1.1428572
-0.21818182 0.054545455 1.0909091
-0.21272728 0.054545455 1.0909091
-0.20727272 0.054545455 1.0909091
-0.2 0.054054055 1.081081
-0.19285715 0.053571429 1.0714285
-0.18584071 0.053097345 1.0619469
-0.17894737 0.052631579 1.0526316
-0.17368421 0.052631579 1.0526316
-0.16695653 0.052173913 1.0434783
-0.16034482 0.05172414 1.0344827
-0.15384616 0.051282052 1.0256411
-0.14871795 0.051282052 1.0256411
-0.14117648 0.050420169 1.0084034
-0.13613446 0.050420169 1.0084034
-0.13 0.050000001 1
-0.125 0.050000001 1
-0.12 0.050000001 1
-0.115 0.050000001 1
-0.11 0.050000001 1
-0.105 0.050000001 1
-0.1 0.050000001 1
-0.094999999 0.050000001 1
-0.090000004 0.050000001 1
-0.085714288 0.050420169 1.0084034
-0.080672272 0.050420169 1.0084034
-0.075630255 0.050420169 1.0084034
-0.070588239 0.050420169 1.0084034
-0.066101693 0.050847456 1.0169492
-0.061538462 0.051282052 1.0256411
-0.056896552 0.05172414 1.0344827
-0.05172414 0.05172414 1.0344827
-0.046551723 0.05172414 1.0344827
-0.04137931 0.05172414 1.0344827
-0.036206897 0.05172414 1.0344827
-0.031034483 0.05172414 1.0344827
-0.02586207 0.05172414 1.0344827
-0.020689655 0.05172414 1.0344827
-0.015517241 0.05172414 1.0344827
-0.010344828 0.05172414 1.0344827
-0.0051724138 0.05172414 1.0344827
0 0.05172414 1.0344827
0.0051724138 0.05172414 1.0344827
0.010434783 0.052173913 1.0434783
0.015652174 0.052173913 1.0434783
0.020869566 0.052173913 1.0434783
0.026086956 0.052173913 1.0434783
0.031578947 0.052631579 1.0526316
0.036842104 0.052631579 1.0526316
0.042105265 0.052631579 1.0526316
0.04778761 0.053097345 1.0619469
0.053571429 0.053571429 1.0714285
0.058928572 0.053571429 1.0714285
0.064285718 0.053571429 1.0714285
0.069642857 0.053571429 1.0714285
0.075675674 0.054054055 1.081081
0.081081077 0.054054055 1.081081
0.086486489 0.054054055 1.081081
0.091891892 0.054054055 1.081081
0.098181821 0.054545455 1.0909091
0.10363636 0.054545455 1.0909091
0.10909091 0.054545455 1.0909091
0.11454546 0.054545455 1.0909091
0.12 0.054545455 1.0909091
0.12660551 0.055045873 1.1009175
0.13211009 0.055045873 1.1009175
0.1388889 0.055555556 1.1111112
0.14579439 0.056074765 1.1214954
0.15140186 0.056074765 1.1214954
0.15849057 0.056603774 1.1320754
0.16415094 0.056603774 1.1320754
0.17307693 0.057692308 1.1538461
0.18058252 0.058252428 1.1650486
0.1882353 0.05882353 1.1764706
0.19411765 0.05882353 1.1764706
0.2 0.05882353 1.1764706
0.21212122 0.060606062 1.2121212
0.21818182 0.060606062 1.2121212
0.22424242 0.060606062 1.2121212
-0.42272729 0.075000003 1.3636364
-0.41590908 0.075000003 1.3636364
-0.40909091 0.075000003 1.3636364
-0.39775282 0.074157305 1.3483146
-0.39101124 0.074157305 1.3483146
-0.38426965 0.074157305 1.3483146
-0.3775281 0.074157305 1.3483146
-0.37078652 0.074157305 1.3483146
-0.36000001 0.07333333 1.3333334
-0.35333332 0.07333333 1.3333334
-0.33913043 0.07173913 1.3043479
-0.3326087 0.07173913 1.3043479
-0.32258064 0.070967741 1.2903225
-0.31612903 0.070967741 1.2903225
-0.3031579 0.069473684 1.2631578
-0.2968421 0.069473684 1.2631578
-0.26796117 0.064077668 1.1650486
-0.27272728 0.06666667 1.2121212
-0.26666668 0.06666667 1.2121212
-0.26060605 0.06666667 1.2121212
-0.21818182 0.059999999 1.0909091
-0.21081081 0.059459459 1.081081
-0.2054054 0.059459459 1.081081
-0.2 0.059459459 1.081081
-0.19285715 0.058928572 1.0714285
-0.18584071 0.058407079 1.0619469
-0.18053098 0.058407079 1.0619469
-0.17368421 0.057894737 1.0526316
-0.16695653 0.057391305 1.0434783
-0.16034482 0.056896552 1.0344827
-0.15384616 0.056410257 1.0256411
-0.14745763 0.055932205 1.0169492
-0.14237288 0.055932205 1.0169492
-0.13613446 0.055462185 1.0084034
-0.13109244 0.055462185 1.0084034
-0.125 0.055 1
-0.12 0.055 1
-0.115 0.055 1
-0.11 0.055 1
-0.105 0.055 1
-0.1 0.055 1
-0.094999999 0.055 1
-0.090000004 0.055 1
-0.085000001 0.055 1
-0.080672272 0.055462185 1.0084034
-0.075630255 0.055462185 1.0084034
-0.070588239 0.055462185 1.0084034
-0.065546222 0.055462185 1.0084034
-0.061538462 0.056410257 1.0256411
-0.056896552 0.056896552 1.0344827
-0.05172414 0.056896552 1.0344827
-0.046551723 0.056896552 1.0344827
-0.04137931 0.056896552 1.0344827
-0.036206897 0.056896552 1.0344827
-0.031034483 0.056896552 1.0344827
-0.02586207 0.056896552 1.0344827
-0.020689655 0.056896552 1.0344827
-0.015517241 0.056896552 1.0344827
-0.010344828 0.056896552 1.0344827
-0.0051724138 0.056896552 1.0344827
0 0.056896552 1.0344827
0.0051724138 0.056896552 1.0344827
0.010434783 0.057391305 1.0434783
0.015652174 0.057391305 1.0434783
0.020869566 0.057391305 1.0434783
0.026086956 0.057391305 1.0434783
0.031578947 0.057894737 1.0526316
0.036842104 0.057894737 1.0526316
0.042477876 0.058407079 1.0619469
0.04778761 0.058407079 1.0619469
0.053571429 0.058928572 1.0714285
0.058928572 0.058928572 1.0714285
0.064285718 0.058928572 1.0714285
0.069642857 0.058928572 1.0714285
0.075675674 0.059459459 1.081081
0.081081077 0.059459459 1.081081
0.086486489 0.059459459 1.081081
0.091891892 0.059459459 1.081081
0.098181821 0.059999999 1.0909091
0.10363636 0.059999999 1.0909091
0.10909091 0.059999999 1.0909091
0.11454546 0.059999999 1.0909091
0.12110092 0.060550459 1.1009175
0.12660551 0.060550459 1.1009175
0.13211009 0.060550459 1.1009175
0.13761468 0.060550459 1.1009175
0.14444445 0.061111111 1.1111112
0.15140186 0.061682243 1.1214954
0.15849057 0.062264152 1.1320754
0.16571428 0.062857144 1.1428572
0.17142858 0.062857144 1.1428572
0.18058252 0.064077668 1.1650486
0.18640776 0.064077668 1.1650486
0.19411765 0.064705886 1.1764706
0.2060606 0.06666667 1.2121212
0.21212122 0.06666667 1.2121212
0.21818182 0.06666667 1.2121212
0.22424242 0.06666667 1.2121212
0.23030303 0.06666667 1.2121212
-0.40666667 0.079999998 1.3333334
-0.40000001 0.079999998 1.3333334
-0.39333335 0.079999998 1.3333334
-0.38666666 0.079999998 1.3333334
-0.38 0.079999998 1.3333334
-0.37333333 0.079999998 1.3333334
-0.36666667 0.079999998 1.3333334
-0.36000001 0.079999998 1.3333334
-0.35333332 0.079999998 1.3333334
-0.34285715 0.079120882 1.3186814
-0.32903227 0.077419356 1.2903225
-0.32258064 0.077419356 1.2903225
-0.31276596 0.076595746 1.2765957
-0.3031579 0.075789474 1.2631578
-0.2737864 0.069902912 1.1650486
-0.26796117 0.069902912 1.1650486
-0.27272728 0.07272727 1.2121212
-0.26666668 0.07272727 1.2121212
-0.26060605 0.07272727 1.2121212
-0.25454545 0.07272727 1.2121212
-0.21081081 0.064864866 1.081081
-0.2054054 0.064864866 1.081081
-0.2 0.064864866 1.081081
-0.19285715 0.064285718 1.0714285
-0.18584071 0.063716814 1.0619469
-0.17739131 0.062608697 1.0434783
-0.17217392 0.062608697 1.0434783
-0.16695653 0.062608697 1.0434783
-0.16173913 0.062608697 1.0434783
-0.15254237 0.061016951 1.0169492
-0.14745763 0.061016951 1.0169492
-0.14237288 0.061016951 1.0169492
-0.13613446 0.060504202 1.0084034
-0.13109244 0.060504202 1.0084034
-0.125 0.059999999 1
-0.12 0.059999999 1
-0.115 0.059999999 1
-0.11 0.059999999 1
-0.105 0.059999999 1
-0.1 0.059999999 1
-0.094999999 0.059999999 1
-0.090000004 0.059999999 1
-0.085000001 0.059999999 1
-0.080672272 0.060504202 1.0084034
-0.075630255 0.060504202 1.0084034
-0.070588239 0.060504202 1.0084034
-0.06666667 0.061538462 1.0256411
-0.061538462 0.061538462 1.0256411
-0.056410257 0.061538462 1.0256411
-0.05172414 0.062068965 1.0344827
-0.046551723 0.062068965 1.0344827
-0.04137931 0.062068965 1.0344827
-0.036206897 0.062068965 1.0344827
-0.031034483 0.062068965 1.0344827
-0.02586207 0.062068965 1.0344827
-0.020689655 0.062068965 1.0344827
-0.015517241 0.062068965 1.0344827
-0.010344828 0.062068965 1.0344827
-0.0051724138 0.062068965 1.0344827
0 0.062068965 1.0344827
0.0051724138 0.062068965 1.0344827
0.010434783 0.062608697 1.0434783
0.015652174 0.062608697 1.0434783
0.020869566 0.062608697 1.0434783
0.026086956 0.062608697 1.0434783
0.031578947 0.063157894 1.0526316
0.036842104 0.063157894 1.0526316
0.042105265 0.063157894 1.0526316
0.04778761 0.063716814 1.0619469
0.053571429 0.064285718 1.0714285
0.058928572 0.064285718 1.0714285
0.064285718 0.064285718 1.0714285
0.069642857 0.064285718 1.0714285
0.075675674 0.064864866 1.081081
0.081081077 0.064864866 1.081081
0.086486489 0.064864866 1.081081
0.091891892 0.064864866 1.081081
0.098181821 0.065454543 1.0909091
0.10363636 0.065454543 1.0909091
0.10909091 0.065454543 1.0909091
0.11454546 0.065454543 1.0909091
0.12110092 0.066055045 1.1009175
0.12660551 0.066055045 1.1009175
0.13211009 0.066055045 1.1009175
0.13761468 0.066055045 1.1009175
0.14444445 0.06666667 1.1111112
0.15000001 0.06666667 1.1111112
0.16 0.068571426 1.1428572
0.16571428 0.068571426 1.1428572
0.17142858 0.068571426 1.1428572
0.18058252 0.069902912 1.1650486
0.18640776 0.069902912 1.1650486
0.1960396 0.071287125 1.1881188
0.2019802 0.071287125 1.1881188
0.21212122 0.07272727 1.2121212
0.21818182 0.07272727 1.2121212
0.22424242 0.07272727 1.2121212
0.23030303 0.07272727 1.2121212
0.23636363 0.07272727 1.2121212
-0.40666667 0.086666666 1.3333334
-0.40000001 0.086666666 1.3333334
-0.39333335 0.086666666 1.3333334
-0.38666666 0.086666666 1.3333334
-0.38 0.086666666 1.3333334
-0.36923078 0.085714288 1.3186814
-0.36666667 0.086666666 1.3333334
-0.35604396 0.085714288 1.3186814
-0.34945056 0.085714288 1.3186814
-0.34285715 0.085714288 1.3186814
-0.3326087 0.084782608 1.3043479
-0.32258064 0.08387097 1.2903225
-0.31276596 0.082978725 1.2765957
-0.30638298 0.082978725 1.2765957
-0.2737864 0.075728156 1.1650486
-0.26796117 0.075728156 1.1650486
-0.27272728 0.078787878 1.2121212
-0.26666668 0.078787878 1.2121212
-0.26060605 0.078787878 1.2121212
-0.21081081 0.07027027 1.081081
-0.2054054 0.07027027 1.081081
-0.2 0.07027027 1.081081
-0.19285715 0.069642857 1.0714285
-0.18421052 0.068421051 1.0526316
-0.17894737 0.068421051 1.0526316
-0.17217392 0.067826085 1.0434783
-0.16695653 0.067826085 1.0434783
-0.15897436 0.06666667 1.0256411
-0.15254237 0.066101693 1.0169492
-0.14745763 0.066101693 1.0169492
-0.14117648 0.065546222 1.0084034
-0.13613446 0.065546222 1.0084034
-0.13109244 0.065546222 1.0084034
-0.12605043 0.065546222 1.0084034
-0.12 0.064999998 1
-0.115 0.064999998 1
-0.11 0.064999998 1
-0.105 0.064999998 1
-0.1 0.064999998 1
-0.094999999 0.064999998 1
-0.090000004 0.064999998 1
-0.085000001 0.064999998 1
-0.080672272 0.065546222 1.0084034
-0.075630255 0.065546222 1.0084034
-0.070588239 0.065546222 1.0084034
-0.06666667 0.06666667 1.0256411
-0.061538462 0.06666667 1.0256411
-0.056410257 0.06666667 1.0256411
-0.051282052 0.06666667 1.0256411
-0.046551723 0.067241378 1.0344827
-0.04137931 0.067241378 1.0344827
-0.036206897 0.067241378 1.0344827
-0.031034483 0.067241378 1.0344827
-0.02586207 0.067241378 1.0344827
-0.020689655 0.067241378 1.0344827
-0.015517241 0.067241378 1.0344827
-0.010344828 0.067241378 1.0344827
-0.0051724138 0.067241378 1.0344827
0 0.067826085 1.0434783
0.0052173915 0.067826085 1.0434783
0.010434783 0.067826085 1.0434783
0.015652174 0.067826085 1.0434783
0.020869566 0.067826085 1.0434783
0.026086956 0.067826085 1.0434783
0.031578947 0.068421051 1.0526316
0.036842104 0.068421051 1.0526316
0.042105265 0.068421051 1.0526316
0.047368422 0.068421051 1.0526316
0.053571429 0.069642857 1.0714285
0.058928572 0.069642857 1.0714285
0.064864866 0.07027027 1.081081
0.07027027 0.07027027 1.081081
0.075675674 0.07027027 1.081081
0.081081077 0.07027027 1.081081
0.086486489 0.07027027 1.081081
0.091891892 0.07027027 1.081081
0.097297296 0.07027027 1.081081
0.10363636 0.07090909 1.0909091
0.10909091 0.07090909 1.0909091
0.11559633 0.07155963 1.1009175
0.12110092 0.07155963 1.1009175
0.12660551 0.07155963 1.1009175
0.13211009 0.07155963 1.1009175
0.13761468 0.07155963 1.1009175
0.14444445 0.072222225 1.1111112
0.15140186 0.072897196 1.1214954
0.15700935 0.072897196 1.1214954
0.16261682 0.072897196 1.1214954
0.17142858 0.074285716 1.1428572
0.17714286 0.074285716 1.1428572
0.1882353 0.076470591 1.1764706
0.1960396 0.077227719 1.1881188
0.2019802 0.077227719 1.1881188
0.20792079 0.077227719 1.1881188
0.21600001 0.078000002 1.2
0.22424242 0.078787878 1.2121212
0.23030303 0.078787878 1.2121212
0.23636363 0.078787878 1.2121212
0.24489796 0.079591833 1.2244898
-0.41333333 0.093333334 1.3333334
-0.40666667 0.093333334 1.3333334
-0.40000001 0.093333334 1.3333334
-0.39333335 0.093333334 1.3333334
-0.38666666 0.093333334 1.3333334
-0.37582418 0.092307694 1.3186814
-0.36923078 0.092307694 1.3186814
-0.36666667 0.093333334 1.3333334
-0.35604396 0.092307694 1.3186814
-0.34945056 0.092307694 1.3186814
-0.34285715 0.092307694 1.3186814
-0.3326087 0.091304347 1.3043479
-0.32258064 0.090322584 1.2903225
-0.31612903 0.090322584 1.2903225
-0.30967742 0.090322584 1.2903225
-0.2737864 0.0815534 1.1650486
-0.26796117 0.0815534 1.1650486
-0.27272728 0.084848486 1.2121212
-0.26666668 0.084848486 1.2121212
-0.26060605 0.084848486 1.2121212
-0.19473684 0.073684208 1.0526316
-0.18947369 0.073684208 1.0526316
-0.18421052 0.073684208 1.0526316
-0.17894737 0.073684208 1.0526316
-0.17368421 0.073684208 1.0526316
-0.16410257 0.071794875 1.0256411
-0.15897436 0.071794875 1.0256411
-0.15384616 0.071794875 1.0256411
-0.14745763 0.071186438 1.0169492
-0.14117648 0.070588239 1.0084034
-0.13613446 0.070588239 1.0084034
-0.13109244 0.070588239 1.0084034
-0.12605043 0.070588239 1.0084034
-0.1210084 0.070588239 1.0084034
-0.115 0.07 1
-0.11 0.07 1
-0.105 0.07 1
-0.1 0.07 1
-0.094999999 0.07 1
-0.090000004 0.07 1
-0.085000001 0.07 1
-0.079999998 0.07 1
-0.075630255 0.070588239 1.0084034
-0.070588239 0.070588239 1.0084034
-0.066101693 0.071186438 1.0169492
-0.061538462 0.071794875 1.0256411
-0.056410257 0.071794875 1.0256411
-0.051282052 0.071794875 1.0256411
-0.046551723 0.072413795 1.0344827
-0.04137931 0.072413795 1.0344827
-0.036206897 0.072413795 1.0344827
-0.031034483 0.072413795 1.0344827
-0.02586207 0.072413795 1.0344827
-0.020689655 0.072413795 1.0344827
-0.015517241 0.072413795 1.0344827
-0.010344828 0.072413795 1.0344827
-0.0051724138 0.072413795 1.0344827
0 0.073043481 1.0434783
0.0052173915 0.073043481 1.0434783
0.010434783 0.073043481 1.0434783
0.015652174 0.073043481 1.0434783
0.020869566 0.073043481 1.0434783
0.026086956 0.073043481 1.0434783
0.031578947 0.073684208 1.0526316
0.036842104 0.073684208 1.0526316
0.042477876 0.074336283 1.0619469
0.04778761 0.074336283 1.0619469
0.053571429 0.075000003 1.0714285
0.058928572 0.075000003 1.0714285
0.064285718 0.075000003 1.0714285
0.07027027 0.075675674 1.081081
0.075675674 0.075675674 1.081081
0.081081077 0.075675674 1.081081
0.086486489 0.075675674 1.081081
0.091891892 0.075675674 1.081081
0.097297296 0.075675674 1.081081
0.10363636 0.076363638 1.0909091
0.10909091 0.076363638 1.0909091
0.11559633 0.077064224 1.1009175
0.12110092 0.077064224 1.1009175
0.12660551 0.077064224 1.1009175
0.13211009 0.077064224 1.1009175
0.13761468 0.077064224 1.1009175
0.14444445 0.077777781 1.1111112
0.15140186 0.078504674 1.1214954
0.15700935 0.078504674 1.1214954
0.16261682 0.078504674 1.1214954
0.17142858 0.079999998 1.1428572
0.17714286 0.079999998 1.1428572
0.1882353 0.082352944 1.1764706
0.19411765 0.082352944 1.1764706
0.2019802 0.08316832 1.1881188
0.20999999 0.083999999 1.2
0.21600001 0.083999999 1.2
0.22424242 0.084848486 1.2121212
0.23030303 0.084848486 1.2121212
0.23877551 0.085714288 1.2244898
0.24489796 0.085714288 1.2244898
-0.40666667 0.1 1.3333334
-0.40000001 0.1 1.3333334
-0.39333335 0.1 1.3333334
-0.38666666 0.1 1.3333334
-0.37582418 0.0989011 1.3186814
-0.36923078 0.0989011 1.3186814
-0.36666667 0.1 1.3333334
-0.35604396 0.0989011 1.3186814
-0.34945056 0.0989011 1.3186814
-0.33913043 0.097826086 1.3043479
-0.3326087 0.097826086 1.3043479
-0.32258064 0.096774191 1.2903225
-0.31612903 0.096774191 1.2903225
-0.30967742 0.096774191 1.2903225
-0.26796117 0.087378643 1.1650486
-0.27272728 0.090909094 1.2121212
-0.20176992 0.079646021 1.0619469
-0.19473684 0.078947365 1.0526316
-0.18947369 0.078947365 1.0526316
-0.18421052 0.078947365 1.0526316
-0.17894737 0.078947365 1.0526316
-0.17068966 0.077586204 1.0344827
-0.16551724 0.077586204 1.0344827
-0.15897436 0.07692308 1.0256411
-0.15384616 0.07692308 1.0256411
-0.14871795 0.07692308 1.0256411
-0.14237288 0.076271184 1.0169492
-0.13728814 0.076271184 1.0169492
-0.13109244 0.075630255 1.0084034
-0.12605043 0.075630255 1.0084034
-0.1210084 0.075630255 1.0084034
-0.11596639 0.075630255 1.0084034
-0.11092437 0.075630255 1.0084034
-0.105 0.075000003 1
-0.1 0.075000003 1
-0.094999999 0.075000003 1
-0.090756305 0.075630255 1.0084034
-0.085000001 0.075000003 1
-0.080672272 0.075630255 1.0084034
-0.075630255 0.075630255 1.0084034
-0.071186438 0.076271184 1.0169492
-0.066101693 0.076271184 1.0169492
-0.061538462 0.07692308 1.0256411
-0.056410257 0.07692308 1.0256411
-0.051282052 0.07692308 1.0256411
-0.046551723 0.077586204 1.0344827
-0.04137931 0.077586204 1.0344827
-0.036206897 0.077586204 1.0344827
-0.031034483 0.077586204 1.0344827
-0.02586207 0.077586204 1.0344827
-0.020689655 0.077586204 1.0344827
-0.015517241 0.077586204 1.0344827
-0.010344828 0.077586204 1.0344827
-0.0051724138 0.077586204 1.0344827
0 0.077586204 1.0344827
0.0052173915 0.078260869 1.0434783
0.010434783 0.078260869 1.0434783
0.015652174 0.078260869 1.0434783
0.020869566 0.078260869 1.0434783
0.026086956 0.078260869 1.0434783
0.031304348 0.078260869 1.0434783
0.036842104 0.078947365 1.0526316
0.042477876 0.079646021 1.0619469
0.04778761 0.079646021 1.0619469
0.053571429 0.080357142 1.0714285
0.058928572 0.080357142 1.0714285
0.064285718 0.080357142 1.0714285
0.069642857 0.080357142 1.0714285
0.075675674 0.081081077 1.081081
0.081081077 0.081081077 1.081081
0.086486489 0.081081077 1.081081
0.091891892 0.081081077 1.081081
0.097297296 0.081081077 1.081081
0.10363636 0.081818178 1.0909091
0.10909091 0.081818178 1.0909091
0.11454546 0.081818178 1.0909091
0.12110092 0.082568809 1.1009175
0.12660551 0.082568809 1.1009175
0.13211009 0.082568809 1.1009175
0.1388889 0.083333336 1.1111112
0.14444445 0.083333336 1.1111112
0.15000001 0.083333336 1.1111112
0.15700935 0.084112152 1.1214954
0.16415094 0.084905662 1.1320754
0.17142858 0.085714288 1.1428572
0.17714286 0.085714288 1.1428572
0.1882353 0.088235296 1.1764706
0.19411765 0.088235296 1.1764706
0.204 0.090000004 1.2
0.20999999 0.090000004 1.2
0.21600001 0.090000004 1.2
0.22424242 0.090909094 1.2121212
0.23265307 0.091836736 1.2244898
0.23877551 0.091836736 1.2244898
0.24489796 0.091836736 1.2244898
0.2510204 0.091836736 1.2244898
-0.40219781 0.10549451 1.3186814
-0.3956044 0.10549451 1.3186814
-0.389011 0.10549451 1.3186814
-0.38241759 0.10549451 1.3186814
-0.37582418 0.10549451 1.3186814
-0.36923078 0.10549451 1.3186814
-0.36263737 0.10549451 1.3186814
-0.35604396 0.10549451 1.3186814
-0.34565216 0.10434783 1.3043479
-0.33913043 0.10434783 1.3043479
-0.3326087 0.10434783 1.3043479
-0.31914893 0.10212766 1.2765957
-0.31276596 0.10212766 1.2765957
-0.30638298 0.10212766 1.2765957
-0.20176992 0.084955752 1.0619469
-0.19646017 0.084955752 1.0619469
-0.19115044 0.084955752 1.0619469
-0.18421052 0.08421053 1.0526316
-0.17586207 0.08275862 1.0344827
-0.17068966 0.08275862 1.0344827
-0.16551724 0.08275862 1.0344827
-0.15897436 0.082051285 1.0256411
-0.15384616 0.082051285 1.0256411
-0.14871795 0.082051285 1.0256411
-0.14237288 0.081355929 1.0169492
-0.13728814 0.081355929 1.0169492
-0.13220339 0.081355929 1.0169492
-0.12605043 0.080672272 1.0084034
-0.1210084 0.080672272 1.0084034
-0.11596639 0.080672272 1.0084034
-0.11092437 0.080672272 1.0084034
-0.105 0.079999998 1
-0.10084034 0.080672272 1.0084034
-0.095798321 0.080672272 1.0084034
-0.090756305 0.080672272 1.0084034
-0.085714288 0.080672272 1.0084034
-0.080672272 0.080672272 1.0084034
-0.075630255 0.080672272 1.0084034
-0.071186438 0.081355929 1.0169492
-0.066101693 0.081355929 1.0169492
-0.061538462 0.082051285 1.0256411
-0.056410257 0.082051285 1.0256411
-0.051282052 0.082051285 1.0256411
-0.046551723 0.08275862 1.0344827
-0.04137931 0.08275862 1.0344827
-0.036206897 0.08275862 1.0344827
-0.031034483 0.08275862 1.0344827
-0.02586207 0.08275862 1.0344827
-0.020689655 0.08275862 1.0344827
-0.015517241 0.08275862 1.0344827
-0.010344828 0.08275862 1.0344827
-0.0051724138 0.08275862 1.0344827
0 0.08275862 1.0344827
0.0051724138 0.08275862 1.0344827
0.010434783 0.083478265 1.0434783
0.015652174 0.083478265 1.0434783
0.020869566 0.083478265 1.0434783
0.026086956 0.083478265 1.0434783
0.031578947 0.08421053 1.0526316
0.036842104 0.08421053 1.0526316
0.042105265 0.08421053 1.0526316
0.048214287 0.085714288 1.0714285
0.053571429 0.085714288 1.0714285
0.058928572 0.085714288 1.0714285
0.064285718 0.085714288 1.0714285
0.069642857 0.085714288 1.0714285
0.075675674 0.086486489 1.081081
0.081081077 0.086486489 1.081081
0.086486489 0.086486489 1.081081
0.091891892 0.086486489 1.081081
0.098181821 0.087272726 1.0909091
0.10363636 0.087272726 1.0909091
0.10909091 0.087272726 1.0909091
0.11454546 0.087272726 1.0909091
0.12 0.087272726 1.0909091
0.12660551 0.088073395 1.1009175
0.13211009 0.088073395 1.1009175
0.13761468 0.088073395 1.1009175
0.14444445 0.088888891 1.1111112
0.15000001 0.088888891 1.1111112
0.15700935 0.089719623 1.1214954
0.16415094 0.090566039 1.1320754
0.17142858 0.09142857 1.1428572
0.17714286 0.09142857 1.1428572
0.18461539 0.092307694 1.1538461
0.19038461 0.092307694 1.1538461
0.2019802 0.095049508 1.1881188
0.20792079 0.095049508 1.1881188
0.21600001 0.096000001 1.2
0.222 0.096000001 1.2
0.23265307 0.097959183 1.2244898
0.23877551 0.097959183 1.2244898
0.24489796 0.097959183 1.2244898
-0.40879121 0.11208791 1.3186814
-0.40219781 0.11208791 1.3186814
-0.3956044 0.11208791 1.3186814
-0.389011 0.11208791 1.3186814
-0.38241759 0.11208791 1.3186814
-0.37582418 0.11208791 1.3186814
-0.36521739 0.11086956 1.3043479
-0.36263737 0.11208791 1.3186814
-0.35217392 0.11086956 1.3043479
-0.34565216 0.11086956 1.3043479
-0.33548388 0.10967742 1.2903225
-0.32553193 0.10851064 1.2765957
-0.31914893 0.10851064 1.2765957
-0.31276596 0.10851064 1.2765957
-0.30638298 0.10851064 1.2765957
-0.2764706 0.1 1.1764706
-0.20707965 0.09026549 1.0619469
-0.20176992 0.09026549 1.0619469
-0.19646017 0.09026549 1.0619469
-0.19115044 0.09026549 1.0619469
-0.18421052 0.089473687 1.0526316
-0.17739131 0.088695653 1.0434783
-0.17068966 0.087931037 1.0344827
-0.16551724 0.087931037 1.0344827
-0.16034482 0.087931037 1.0344827
-0.15384616 0.087179489 1.0256411
-0.14871795 0.087179489 1.0256411
-0.14237288 0.086440675 1.0169492
-0.13728814 0.086440675 1.0169492
-0.13109244 0.085714288 1.0084034
-0.12605043 0.085714288 1.0084034
-0.1210084 0.085714288 1.0084034
-0.11596639 0.085714288 1.0084034
-0.11092437 0.085714288 1.0084034
-0.10588235 0.085714288 1.0084034
-0.10084034 0.085714288 1.0084034
-0.095798321 0.085714288 1.0084034
-0.090756305 0.085714288 1.0084034
-0.085714288 0.085714288 1.0084034
-0.080672272 0.085714288 1.0084034
-0.075630255 0.085714288 1.0084034
-0.070588239 0.085714288 1.0084034
-0.066101693 0.086440675 1.0169492
-0.061016951 0.086440675 1.0169492
-0.056410257 0.087179489 1.0256411
-0.051282052 0.087179489 1.0256411
-0.046551723 0.087931037 1.0344827
-0.04137931 0.087931037 1.0344827
-0.036206897 0.087931037 1.0344827
-0.031034483 0.087931037 1.0344827
-0.02586207 0.087931037 1.0344827
-0.020689655 0.087931037 1.0344827
-0.015517241 0.087931037 1.0344827
-0.010344828 0.087931037 1.0344827
-0.0051724138 0.087931037 1.0344827
0 0.087931037 1.0344827
0.0051724138 0.087931037 1.0344827
0.010344828 0.087931037 1.0344827
0.015652174 0.088695653 1.0434783
0.020869566 0.088695653 1.0434783
0.02631579 0.089473687 1.0526316
0.031578947 0.089473687 1.0526316
0.036842104 0.089473687 1.0526316
0.042105265 0.089473687 1.0526316
0.048214287 0.091071427 1.0714285
0.053571429 0.091071427 1.0714285
0.058928572 0.091071427 1.0714285
0.064285718 0.091071427 1.0714285
0.07027027 0.091891892 1.081081
0.075675674 0.091891892 1.081081
0.081081077 0.091891892 1.081081
0.086486489 0.091891892 1.081081
0.092727274 0.092727274 1.0909091
0.098181821 0.092727274 1.0909091
0.10363636 0.092727274 1.0909091
0.10909091 0.092727274 1.0909091
0.11454546 0.092727274 1.0909091
0.12 0.092727274 1.0909091
0.12545455 0.092727274 1.0909091
0.13211009 0.093577981 1.1009175
0.13761468 0.093577981 1.1009175
0.14444445 0.094444446 1.1111112
0.15000001 0.094444446 1.1111112
0.15700935 0.095327102 1.1214954
0.16261682 0.095327102 1.1214954
0.17142858 0.09714286 1.1428572
0.17714286 0.09714286 1.1428572
0.18461539 0.098076925 1.1538461
0.19038461 0.098076925 1.1538461
0.2019802 0.1009901 1.1881188
0.20792079 0.1009901 1.1881188
0.21600001 0.102 1.2
0.222 0.102 1.2
0.23265307 0.10408163 1.2244898
0.23877551 0.10408163 1.2244898
0.24489796 0.10408163 1.2244898
-0.40219781 0.11868132 1.3186814
-0.3956044 0.11868132 1.3186814
-0.389011 0.11868132 1.3186814
