# .PCD v0.7 - Point Cloud Data file format
VERSION 0.7
FIELDS x y z
SIZE 4 4 4
TYPE F F F
COUNT 1 1 1
WIDTH 1474
HEIGHT 1
VIEWPOINT 0 0 0 1 0 0 0
POINTS 1474
DATA ascii
-0.26972476 0.077064224 1.1009175
-0.26666668 0.077777781 1.1111112
-0.26111111 0.077777781 1.1111112
-0.25794393 0.078504674 1.1214954
-0.25233644 0.078504674 1.1214954
-0.24905661 0.079245284 1.1320754
-0.24339622 0.079245284 1.1320754
-0.23773585 0.079245284 1.1320754
-0.23207547 0.079245284 1.1320754
-0.2264151 0.079245284 1.1320754
-0.22075471 0.079245284 1.1320754
-0.21509434 0.079245284 1.1320754
-0.20747663 0.078504674 1.1214954
-0.20186916 0.078504674 1.1214954
-0.19444445 0.077777781 1.1111112
-0.1906542 0.078504674 1.1214954
-0.18504673 0.078504674 1.1214954
-0.17297298 0.075675674 1.081081
-0.16756757 0.075675674 1.081081
-0.16216215 0.075675674 1.081081
-0.15675676 0.075675674 1.081081
-0.14736842 0.073684208 1.0526316
-0.14210527 0.073684208 1.0526316
-0.13565217 0.073043481 1.0434783
-0.13043478 0.073043481 1.0434783
-0.12521739 0.073043481 1.0434783
-0.11794872 0.071794875 1.0256411
-0.11186441 0.071186438 1.0169492
-0.10588235 0.070588239 1.0084034
-0.1 0.07 1
-0.094999999 0.07 1
-0.090000004 0.07 1
-0.084297523 0.069421485 0.99173552
-0.079338841 0.069421485 0.99173552
-0.073770493 0.068852462 0.98360658
-0.068852462 0.068852462 0.98360658
-0.063414633 0.068292685 0.97560978
-0.058536585 0.068292685 0.97560978
-0.053225808 0.067741938 0.96774191
-0.048 0.067199998 0.95999998
-0.042857144 0.06666667 0.95238096
-0.03809524 0.06666667 0.95238096
-0.033333335 0.06666667 0.95238096
-0.028346457 0.066141732 0.94488192
-0.023622047 0.066141732 0.94488192
-0.018897638 0.066141732 0.94488192
-0.013953488 0.065116279 0.93023258
-0.0093023255 0.065116279 0.93023258
-0.0046511628 0.065116279 0.93023258
0 0.064615384 0.92307693
0.0046153846 0.064615384 0.92307693
0.0091603054 0.06412214 0.91603053
0.013740458 0.06412214 0.91603053
0.018181818 0.063636363 0.90909094
0.022727273 0.063636363 0.90909094
0.027272727 0.063636363 0.90909094
0.031818181 0.063636363 0.90909094
0.065217391 0.091304347 1.3043479
0.07173913 0.091304347 1.3043479
0.078260869 0.091304347 1.3043479
0.084782608 0.091304347 1.3043479
0.090322584 0.090322584 1.2903225
0.096774191 0.090322584 1.2903225
0.1032258 0.090322584 1.2903225
0.10967742 0.090322584 1.2903225
0.11612903 0.090322584 1.2903225
0.12258065 0.090322584 1.2903225
0.12903225 0.090322584 1.2903225
0.13548388 0.090322584 1.2903225
0.14193548 0.090322584 1.2903225
0.14838709 0.090322584 1.2903225
0.15483871 0.090322584 1.2903225
0.16129032 0.090322584 1.2903225
0.16774194 0.090322584 1.2903225
0.17234042 0.089361705 1.2765957
0.17872341 0.089361705 1.2765957
0.18510638 0.089361705 1.2765957
0.19148937 0.089361705 1.2765957
0.19787234 0.089361705 1.2765957
0.20425531 0.089361705 1.2765957
0.2106383 0.089361705 1.2765957
0.21702127 0.089361705 1.2765957
0.22580644 0.090322584 1.2903225
0.22978723 0.089361705 1.2765957
0.23870967 0.090322584 1.2903225
0.24516129 0.090322584 1.2903225
0.2516129 0.090322584 1.2903225
0.25806451 0.090322584 1.2903225
0.26451612 0.090322584 1.2903225
0.27096775 0.090322584 1.2903225
0.28043479 0.091304347 1.3043479
0.28695652 0.091304347 1.3043479
0.29347825 0.091304347 1.3043479
0.30329672 0.092307694 1.3186814
0.30989012 0.092307694 1.3186814
0.31648353 0.092307694 1.3186814
0.32666665 0.093333334 1.3333334
0.33333334 0.093333334 1.3333334
0.34 0.093333334 1.3333334
0.3505618 0.094382025 1.3483146
0.35730338 0.094382025 1.3483146
0.37241378 0.096551724 1.3793104
0.37931034 0.096551724 1.3793104
0.3862069 0.096551724 1.3793104
0.39310345 0.096551724 1.3793104
-0.35428572 0.085714288 1.1428572
-0.34857142 0.085714288 1.1428572
-0.34285715 0.085714288 1.1428572
-0.33714285 0.085714288 1.1428572
-0.33142856 0.085714288 1.1428572
-0.31666666 0.083333336 1.1111112
-0.31111112 0.083333336 1.1111112
-0.30275229 0.082568809 1.1009175
-0.29724771 0.082568809 1.1009175
-0.29174313 0.082568809 1.1009175
-0.28623852 0.082568809 1.1009175
-0.28073394 0.082568809 1.1009175
-0.27522936 0.082568809 1.1009175
-0.27222222 0.083333336 1.1111112
-0.26666668 0.083333336 1.1111112
-0.26355141 0.084112152 1.1214954
-0.25794393 0.084112152 1.1214954
-0.25233644 0.084112152 1.1214954
-0.24905661 0.084905662 1.1320754
-0.24339622 0.084905662 1.1320754
-0.23773585 0.084905662 1.1320754
-0.23207547 0.084905662 1.1320754
-0.2264151 0.084905662 1.1320754
-0.22075471 0.084905662 1.1320754
-0.21509434 0.084905662 1.1320754
-0.20747663 0.084112152 1.1214954
-0.20186916 0.084112152 1.1214954
-0.19444445 0.083333336 1.1111112
-0.18888889 0.083333336 1.1111112
-0.18000001 0.081818178 1.0909091
-0.17454545 0.081818178 1.0909091
-0.16756757 0.081081077 1.081081
-0.16216215 0.081081077 1.081081
-0.15263158 0.078947365 1.0526316
-0.14608696 0.078260869 1.0434783
-0.14086956 0.078260869 1.0434783
-0.13565217 0.078260869 1.0434783
-0.13043478 0.078260869 1.0434783
-0.1220339 0.076271184 1.0169492
-0.11694916 0.076271184 1.0169492
-0.11186441 0.076271184 1.0169492
-0.10588235 0.075630255 1.0084034
-0.10084034 0.075630255 1.0084034
-0.094999999 0.075000003 1
-0.089256197 0.074380167 0.99173552
-0.084297523 0.074380167 0.99173552
-0.078688525 0.073770493 0.98360658
-0.073770493 0.073770493 0.98360658
-0.068292685 0.073170729 0.97560978
-0.063414633 0.073170729 0.97560978
-0.058064517 0.072580643 0.96774191
-0.053225808 0.072580643 0.96774191
-0.048 0.071999997 0.95999998
-0.043200001 0.071999997 0.95999998
-0.03809524 0.071428575 0.95238096
-0.033070866 0.070866145 0.94488192
-0.028346457 0.070866145 0.94488192
-0.023622047 0.070866145 0.94488192
-0.018897638 0.070866145 0.94488192
-0.013953488 0.069767445 0.93023258
-0.0093023255 0.069767445 0.93023258
-0.0046511628 0.069767445 0.93023258
0 0.069230773 0.92307693
0.0046153846 0.069230773 0.92307693
0.0092307692 0.069230773 0.92307693
0.013636364 0.06818182 0.90909094
0.018181818 0.06818182 0.90909094
0.022727273 0.06818182 0.90909094
0.027272727 0.06818182 0.90909094
0.065217391 0.097826086 1.3043479
0.07173913 0.097826086 1.3043479
0.078260869 0.097826086 1.3043479
0.084782608 0.097826086 1.3043479
0.091304347 0.097826086 1.3043479
0.097826086 0.097826086 1.3043479
0.1032258 0.096774191 1.2903225
0.10967742 0.096774191 1.2903225
0.11612903 0.096774191 1.2903225
0.12258065 0.096774191 1.2903225
0.12903225 0.096774191 1.2903225
0.13548388 0.096774191 1.2903225
0.14193548 0.096774191 1.2903225
0.14838709 0.096774191 1.2903225
0.15483871 0.096774191 1.2903225
0.16129032 0.096774191 1.2903225
0.16774194 0.096774191 1.2903225
0.17419355 0.096774191 1.2903225
0.17872341 0.095744684 1.2765957
0.18709677 0.096774191 1.2903225
0.19148937 0.095744684 1.2765957
0.19787234 0.095744684 1.2765957
0.20425531 0.095744684 1.2765957
0.2106383 0.095744684 1.2765957
0.21935484 0.096774191 1.2903225
0.22580644 0.096774191 1.2903225
0.23225807 0.096774191 1.2903225
0.23870967 0.096774191 1.2903225
0.24516129 0.096774191 1.2903225
0.2516129 0.096774191 1.2903225
0.25806451 0.096774191 1.2903225
0.26451612 0.096774191 1.2903225
0.27391306 0.097826086 1.3043479
0.28043479 0.097826086 1.3043479
0.28695652 0.097826086 1.3043479
0.29347825 0.097826086 1.3043479
0.30329672 0.0989011 1.3186814
0.30989012 0.0989011 1.3186814
0.31999999 0.1 1.3333334
0.32666665 0.1 1.3333334
0.33333334 0.1 1.3333334
0.34382021 0.10112359 1.3483146
0.3505618 0.10112359 1.3483146
0.36136365 0.10227273 1.3636364
0.37241378 0.10344828 1.3793104
0.37931034 0.10344828 1.3793104
0.3862069 0.10344828 1.3793104
-0.36000001 0.09142857 1.1428572
-0.35428572 0.09142857 1.1428572
-0.34857142 0.09142857 1.1428572
-0.34285715 0.09142857 1.1428572
-0.33714285 0.09142857 1.1428572
-0.32830188 0.090566039 1.1320754
-0.31962618 0.089719623 1.1214954
-0.3140187 0.089719623 1.1214954
-0.30841121 0.089719623 1.1214954
-0.30280373 0.089719623 1.1214954
-0.29444444 0.088888891 1.1111112
-0.28623852 0.088073395 1.1009175
-0.28333333 0.088888891 1.1111112
-0.27777779 0.088888891 1.1111112
-0.27222222 0.088888891 1.1111112
-0.26666668 0.088888891 1.1111112
-0.26355141 0.089719623 1.1214954
-0.25794393 0.089719623 1.1214954
-0.25233644 0.089719623 1.1214954
-0.24672897 0.089719623 1.1214954
-0.24339622 0.090566039 1.1320754
-0.23773585 0.090566039 1.1320754
-0.23207547 0.090566039 1.1320754
-0.2264151 0.090566039 1.1320754
-0.22075471 0.090566039 1.1320754
-0.21509434 0.090566039 1.1320754
-0.20747663 0.089719623 1.1214954
-0.2 0.088888891 1.1111112
-0.19444445 0.088888891 1.1111112
-0.18545455 0.087272726 1.0909091
-0.18000001 0.087272726 1.0909091
-0.17454545 0.087272726 1.0909091
-0.16909091 0.087272726 1.0909091
-0.15789473 0.08421053 1.0526316
-0.15263158 0.08421053 1.0526316
-0.14608696 0.083478265 1.0434783
-0.14086956 0.083478265 1.0434783
-0.13565217 0.083478265 1.0434783
-0.12820514 0.082051285 1.0256411
-0.12307692 0.082051285 1.0256411
-0.11694916 0.081355929 1.0169492
-0.11092437 0.080672272 1.0084034
-0.10588235 0.080672272 1.0084034
-0.1 0.079999998 1
-0.094999999 0.079999998 1
-0.089256197 0.079338841 0.99173552
-0.084297523 0.079338841 0.99173552
-0.078688525 0.078688525 0.98360658
-0.073770493 0.078688525 0.98360658
-0.068292685 0.078048781 0.97560978
-0.063414633 0.078048781 0.97560978
-0.058064517 0.077419356 0.96774191
-0.053225808 0.077419356 0.96774191
-0.048 0.076800004 0.95999998
-0.043200001 0.076800004 0.95999998
-0.03809524 0.076190479 0.95238096
-0.033333335 0.076190479 0.95238096
-0.028346457 0.075590551 0.94488192
-0.023622047 0.075590551 0.94488192
-0.018897638 0.075590551 0.94488192
-0.013953488 0.074418604 0.93023258
-0.0093023255 0.074418604 0.93023258
-0.0046511628 0.074418604 0.93023258
0 0.073846154 0.92307693
0.0046153846 0.073846154 0.92307693
0.0092307692 0.073846154 0.92307693
0.013636364 0.07272727 0.90909094
0.018181818 0.07272727 0.90909094
0.022727273 0.07272727 0.90909094
0.027272727 0.07272727 0.90909094
0.058695652 0.10434783 1.3043479
0.065217391 0.10434783 1.3043479
0.07173913 0.10434783 1.3043479
0.078260869 0.10434783 1.3043479
0.084782608 0.10434783 1.3043479
0.091304347 0.10434783 1.3043479
0.097826086 0.10434783 1.3043479
0.10434783 0.10434783 1.3043479
0.11086956 0.10434783 1.3043479
0.11612903 0.1032258 1.2903225
0.12258065 0.1032258 1.2903225
0.12903225 0.1032258 1.2903225
0.13548388 0.1032258 1.2903225
0.14193548 0.1032258 1.2903225
0.14838709 0.1032258 1.2903225
0.15483871 0.1032258 1.2903225
0.16129032 0.1032258 1.2903225
0.16774194 0.1032258 1.2903225
0.17419355 0.1032258 1.2903225
0.18064517 0.1032258 1.2903225
0.18709677 0.1032258 1.2903225
0.19148937 0.10212766 1.2765957
0.2 0.1032258 1.2903225
0.20645161 0.1032258 1.2903225
0.21290323 0.1032258 1.2903225
0.21935484 0.1032258 1.2903225
0.22580644 0.1032258 1.2903225
0.23225807 0.1032258 1.2903225
0.23870967 0.1032258 1.2903225
0.24516129 0.1032258 1.2903225
0.2516129 0.1032258 1.2903225
0.25806451 0.1032258 1.2903225
0.26451612 0.1032258 1.2903225
0.27391306 0.10434783 1.3043479
0.28043479 0.10434783 1.3043479
0.2901099 0.10549451 1.3186814
0.29670331 0.10549451 1.3186814
0.30329672 0.10549451 1.3186814
0.31333333 0.10666667 1.3333334
0.31999999 0.10666667 1.3333334
0.32666665 0.10666667 1.3333334
0.33333334 0.10666667 1.3333334
0.34772727 0.10909091 1.3636364
0.35454544 0.10909091 1.3636364
0.36136365 0.10909091 1.3636364
0.36818182 0.10909091 1.3636364
0.37931034 0.11034483 1.3793104
0.3862069 0.11034483 1.3793104
-0.36000001 0.09714286 1.1428572
-0.35428572 0.09714286 1.1428572
-0.34857142 0.09714286 1.1428572
-0.34285715 0.09714286 1.1428572
-0.33396226 0.096226417 1.1320754
-0.32830188 0.096226417 1.1320754
-0.31962618 0.095327102 1.1214954
-0.3140187 0.095327102 1.1214954
-0.30841121 0.095327102 1.1214954
-0.30280373 0.095327102 1.1214954
-0.29444444 0.094444446 1.1111112
-0.29158878 0.095327102 1.1214954
-0.28333333 0.094444446 1.1111112
-0.27777779 0.094444446 1.1111112
-0.27222222 0.094444446 1.1111112
-0.26915887 0.095327102 1.1214954
-0.26355141 0.095327102 1.1214954
-0.25794393 0.095327102 1.1214954
-0.25233644 0.095327102 1.1214954
-0.24905661 0.096226417 1.1320754
-0.24339622 0.096226417 1.1320754
-0.23773585 0.096226417 1.1320754
-0.23207547 0.096226417 1.1320754
-0.2264151 0.096226417 1.1320754
-0.21869159 0.095327102 1.1214954
-0.21308412 0.095327102 1.1214954
-0.20747663 0.095327102 1.1214954
-0.2 0.094444446 1.1111112
-0.19266056 0.093577981 1.1009175
-0.18545455 0.092727274 1.0909091
-0.18000001 0.092727274 1.0909091
-0.17297298 0.091891892 1.081081
-0.16756757 0.091891892 1.081081
-0.15789473 0.089473687 1.0526316
-0.15263158 0.089473687 1.0526316
-0.14608696 0.088695653 1.0434783
-0.14086956 0.088695653 1.0434783
-0.13333334 0.087179489 1.0256411
-0.12820514 0.087179489 1.0256411
-0.12307692 0.087179489 1.0256411
-0.11596639 0.085714288 1.0084034
-0.11092437 0.085714288 1.0084034
-0.10588235 0.085714288 1.0084034
-0.1 0.085000001 1
-0.094999999 0.085000001 1
-0.089256197 0.084297523 0.99173552
-0.084297523 0.084297523 0.99173552
-0.078688525 0.083606556 0.98360658
-0.073770493 0.083606556 0.98360658
-0.068852462 0.083606556 0.98360658
-0.063414633 0.082926832 0.97560978
-0.058536585 0.082926832 0.97560978
-0.053225808 0.082258068 0.96774191
-0.048387095 0.082258068 0.96774191
-0.043200001 0.081600003 0.95999998
-0.038400002 0.081600003 0.95999998
-0.033333335 0.080952384 0.95238096
-0.028571429 0.080952384 0.95238096
-0.023809524 0.080952384 0.95238096
-0.01904762 0.080952384 0.95238096
-0.0140625 0.079687499 0.9375
-0.0093750004 0.079687499 0.9375
-0.0046875002 0.079687499 0.9375
0 0.078461535 0.92307693
0.0046153846 0.078461535 0.92307693
0.0092307692 0.078461535 0.92307693
0.018181818 0.077272728 0.90909094
0.065217391 0.11086956 1.3043479
0.07173913 0.11086956 1.3043479
0.078260869 0.11086956 1.3043479
0.084782608 0.11086956 1.3043479
0.091304347 0.11086956 1.3043479
0.097826086 0.11086956 1.3043479
0.10434783 0.11086956 1.3043479
0.11086956 0.11086956 1.3043479
0.1173913 0.11086956 1.3043479
0.12258065 0.10967742 1.2903225
0.12903225 0.10967742 1.2903225
0.13548388 0.10967742 1.2903225
0.14193548 0.10967742 1.2903225
0.14838709 0.10967742 1.2903225
0.15483871 0.10967742 1.2903225
0.16129032 0.10967742 1.2903225
0.16774194 0.10967742 1.2903225
0.17419355 0.10967742 1.2903225
0.18064517 0.10967742 1.2903225
0.18709677 0.10967742 1.2903225
0.19354838 0.10967742 1.2903225
0.2 0.10967742 1.2903225
0.20645161 0.10967742 1.2903225
0.21290323 0.10967742 1.2903225
0.21935484 0.10967742 1.2903225
0.22580644 0.10967742 1.2903225
0.23225807 0.10967742 1.2903225
0.23870967 0.10967742 1.2903225
0.24516129 0.10967742 1.2903225
0.25434783 0.11086956 1.3043479
0.26086956 0.11086956 1.3043479
0.26739129 0.11086956 1.3043479
0.27692309 0.11208791 1.3186814
0.2835165 0.11208791 1.3186814
0.2901099 0.11208791 1.3186814
0.29670331 0.11208791 1.3186814
0.30329672 0.11208791 1.3186814
0.31333333 0.11333334 1.3333334
0.31999999 0.11333334 1.3333334
0.32666665 0.11333334 1.3333334
0.33707866 0.11460674 1.3483146
0.34772727 0.11590909 1.3636364
0.35454544 0.11590909 1.3636364
0.36551723 0.11724138 1.3793104
0.37241378 0.11724138 1.3793104
0.37931034 0.11724138 1.3793104
0.3862069 0.11724138 1.3793104
-0.36571428 0.10285714 1.1428572
-0.36000001 0.10285714 1.1428572
-0.35428572 0.10285714 1.1428572
-0.34857142 0.10285714 1.1428572
-0.34285715 0.10285714 1.1428572
-0.33396226 0.10188679 1.1320754
-0.32830188 0.10188679 1.1320754
-0.32264152 0.10188679 1.1320754
-0.3140187 0.10093458 1.1214954
-0.30841121 0.10093458 1.1214954
-0.30280373 0.10093458 1.1214954
-0.29719627 0.10093458 1.1214954
-0.29158878 0.10093458 1.1214954
-0.2859813 0.10093458 1.1214954
-0.27777779 0.1 1.1111112
-0.27476636 0.10093458 1.1214954
-0.26915887 0.10093458 1.1214954
-0.26355141 0.10093458 1.1214954
-0.25794393 0.10093458 1.1214954
-0.25233644 0.10093458 1.1214954
-0.24905661 0.10188679 1.1320754
-0.24339622 0.10188679 1.1320754
-0.23773585 0.10188679 1.1320754
-0.23207547 0.10188679 1.1320754
-0.2264151 0.10188679 1.1320754
-0.22075471 0.10188679 1.1320754
-0.21308412 0.10093458 1.1214954
-0.20747663 0.10093458 1.1214954
-0.2 0.1 1.1111112
-0.19266056 0.099082567 1.1009175
-0.18545455 0.098181821 1.0909091
-0.17837837 0.097297296 1.081081
-0.17297298 0.097297296 1.081081
-0.16756757 0.097297296 1.081081
-0.15929204 0.095575221 1.0619469
-0.15263158 0.094736844 1.0526316
-0.14608696 0.093913041 1.0434783
-0.13965517 0.093103446 1.0344827
-0.13448276 0.093103446 1.0344827
-0.12820514 0.092307694 1.0256411
-0.1220339 0.091525421 1.0169492
-0.11694916 0.091525421 1.0169492
-0.11092437 0.090756305 1.0084034
-0.10588235 0.090756305 1.0084034
-0.10084034 0.090756305 1.0084034
-0.094999999 0.090000004 1
-0.089256197 0.089256197 0.99173552
-0.084297523 0.089256197 0.99173552
-0.078688525 0.088524587 0.98360658
-0.073770493 0.088524587 0.98360658
-0.068852462 0.088524587 0.98360658
-0.063414633 0.087804876 0.97560978
-0.058536585 0.087804876 0.97560978
-0.053225808 0.087096773 0.96774191
-0.048 0.086400002 0.95999998
-0.043200001 0.086400002 0.95999998
-0.038400002 0.086400002 0.95999998
-0.033599999 0.086400002 0.95999998
-0.028571429 0.085714288 0.95238096
-0.023809524 0.085714288 0.95238096
-0.01904762 0.085714288 0.95238096
-0.0140625 0.084375001 0.9375
-0.0093750004 0.084375001 0.9375
-0.0046875002 0.084375001 0.9375
0 0.084375001 0.9375
0.046666667 0.12 1.3333334
0.05934066 0.11868132 1.3186814
0.065934069 0.11868132 1.3186814
0.072527476 0.11868132 1.3186814
0.078260869 0.1173913 1.3043479
0.084782608 0.1173913 1.3043479
0.091304347 0.1173913 1.3043479
0.097826086 0.1173913 1.3043479
0.10434783 0.1173913 1.3043479
0.11086956 0.1173913 1.3043479
0.1173913 0.1173913 1.3043479
0.12391304 0.1173913 1.3043479
0.13043478 0.1173913 1.3043479
0.13548388 0.11612903 1.2903225
0.14193548 0.11612903 1.2903225
0.14838709 0.11612903 1.2903225
0.15483871 0.11612903 1.2903225
0.16129032 0.11612903 1.2903225
0.16774194 0.11612903 1.2903225
0.17419355 0.11612903 1.2903225
0.18064517 0.11612903 1.2903225
0.18709677 0.11612903 1.2903225
0.19354838 0.11612903 1.2903225
0.2 0.11612903 1.2903225
0.20645161 0.11612903 1.2903225
0.21290323 0.11612903 1.2903225
0.21935484 0.11612903 1.2903225
0.22580644 0.11612903 1.2903225
0.23478261 0.1173913 1.3043479
0.24130435 0.1173913 1.3043479
0.24782608 0.1173913 1.3043479
0.25434783 0.1173913 1.3043479
0.26086956 0.1173913 1.3043479
0.26739129 0.1173913 1.3043479
0.27692309 0.11868132 1.3186814
0.2835165 0.11868132 1.3186814
0.2901099 0.11868132 1.3186814
0.29670331 0.11868132 1.3186814
0.30329672 0.11868132 1.3186814
0.31333333 0.12 1.3333334
0.31999999 0.12 1.3333334
0.33033708 0.12134831 1.3483146
0.33707866 0.12134831 1.3483146
0.34382021 0.12134831 1.3483146
0.35454544 0.12272727 1.3636364
0.36551723 0.12413793 1.3793104
0.37241378 0.12413793 1.3793104
0.37931034 0.12413793 1.3793104
-0.375 0.10961539 1.1538461
-0.36923078 0.10961539 1.1538461
-0.36346152 0.10961539 1.1538461
-0.35428572 0.10857143 1.1428572
-0.34857142 0.10857143 1.1428572
-0.34285715 0.10857143 1.1428572
-0.33714285 0.10857143 1.1428572
-0.32830188 0.10754717 1.1320754
-0.32264152 0.10754717 1.1320754
-0.31698114 0.10754717 1.1320754
-0.30841121 0.10654206 1.1214954
-0.30280373 0.10654206 1.1214954
-0.29719627 0.10654206 1.1214954
-0.29158878 0.10654206 1.1214954
-0.2859813 0.10654206 1.1214954
-0.28037384 0.10654206 1.1214954
-0.27476636 0.10654206 1.1214954
-0.26915887 0.10654206 1.1214954
-0.26355141 0.10654206 1.1214954
-0.25794393 0.10654206 1.1214954
-0.25471699 0.10754717 1.1320754
-0.24905661 0.10754717 1.1320754
-0.24339622 0.10754717 1.1320754
-0.23773585 0.10754717 1.1320754
-0.23207547 0.10754717 1.1320754
-0.2264151 0.10754717 1.1320754
-0.21869159 0.10654206 1.1214954
-0.21308412 0.10654206 1.1214954
-0.20747663 0.10654206 1.1214954
-0.19816513 0.10458715 1.1009175
-0.19266056 0.10458715 1.1009175
-0.18715596 0.10458715 1.1009175
-0.17837837 0.1027027 1.081081
-0.17297298 0.1027027 1.081081
-0.16460177 0.10088496 1.0619469
-0.15929204 0.10088496 1.0619469
-0.1539823 0.10088496 1.0619469
-0.14608696 0.099130437 1.0434783
-0.13965517 0.098275863 1.0344827
-0.13448276 0.098275863 1.0344827
-0.12820514 0.097435899 1.0256411
-0.12307692 0.097435899 1.0256411
-0.11694916 0.096610166 1.0169492
-0.11186441 0.096610166 1.0169492
-0.10588235 0.095798321 1.0084034
-0.10084034 0.095798321 1.0084034
-0.095798321 0.095798321 1.0084034
-0.090000004 0.094999999 1
-0.085000001 0.094999999 1
-0.078688525 0.093442626 0.98360658
-0.073770493 0.093442626 0.98360658
-0.068852462 0.093442626 0.98360658
-0.063934423 0.093442626 0.98360658
-0.059016392 0.093442626 0.98360658
-0.05409836 0.093442626 0.98360658
-0.048 0.091200002 0.95999998
-0.043200001 0.091200002 0.95999998
-0.038400002 0.091200002 0.95999998
-0.033599999 0.091200002 0.95999998
-0.028571429 0.090476193 0.95238096
-0.023809524 0.090476193 0.95238096
-0.01904762 0.090476193 0.95238096
-0.0140625 0.089062497 0.9375
-0.0093750004 0.089062497 0.9375
-0.0046875002 0.089062497 0.9375
0 0.089062497 0.9375
0.033333335 0.12666667 1.3333334
0.039999999 0.12666667 1.3333334
0.046666667 0.12666667 1.3333334
0.053333335 0.12666667 1.3333334
0.05934066 0.12527473 1.3186814
0.065934069 0.12527473 1.3186814
0.072527476 0.12527473 1.3186814
0.078260869 0.12391304 1.3043479
0.084782608 0.12391304 1.3043479
0.091304347 0.12391304 1.3043479
0.097826086 0.12391304 1.3043479
0.10434783 0.12391304 1.3043479
0.11086956 0.12391304 1.3043479
0.1173913 0.12391304 1.3043479
0.12391304 0.12391304 1.3043479
0.13043478 0.12391304 1.3043479
0.13695653 0.12391304 1.3043479
0.14347826 0.12391304 1.3043479
0.14838709 0.12258065 1.2903225
0.15652174 0.12391304 1.3043479
0.16304348 0.12391304 1.3043479
0.16774194 0.12258065 1.2903225
0.17419355 0.12258065 1.2903225
0.18064517 0.12258065 1.2903225
0.18709677 0.12258065 1.2903225
0.19354838 0.12258065 1.2903225
0.2 0.12258065 1.2903225
0.20869565 0.12391304 1.3043479
0.21290323 0.12258065 1.2903225
0.21935484 0.12258065 1.2903225
0.22580644 0.12258065 1.2903225
0.23478261 0.12391304 1.3043479
0.24130435 0.12391304 1.3043479
0.24782608 0.12391304 1.3043479
0.25434783 0.12391304 1.3043479
0.26086956 0.12391304 1.3043479
0.27032968 0.12527473 1.3186814
0.27692309 0.12527473 1.3186814
0.2835165 0.12527473 1.3186814
0.2901099 0.12527473 1.3186814
0.29670331 0.12527473 1.3186814
0.30666667 0.12666667 1.3333334
0.31333333 0.12666667 1.3333334
0.32727271 0.12954545 1.3636364
0.33409092 0.12954545 1.3636364
0.34090909 0.12954545 1.3636364
0.34772727 0.12954545 1.3636364
0.35454544 0.12954545 1.3636364
0.36551723 0.13103448 1.3793104
0.37241378 0.13103448 1.3793104
0.37931034 0.13103448 1.3793104
-0.375 0.11538462 1.1538461
-0.36923078 0.11538462 1.1538461
-0.36346152 0.11538462 1.1538461
-0.3576923 0.11538462 1.1538461
-0.34857142 0.11428571 1.1428572
-0.34285715 0.11428571 1.1428572
-0.33714285 0.11428571 1.1428572
-0.32830188 0.11320755 1.1320754
-0.32264152 0.11320755 1.1320754
-0.31698114 0.11320755 1.1320754
-0.31132075 0.11320755 1.1320754
-0.30566037 0.11320755 1.1320754
-0.29719627 0.11214953 1.1214954
-0.29158878 0.11214953 1.1214954
-0.2859813 0.11214953 1.1214954
-0.28037384 0.11214953 1.1214954
-0.27476636 0.11214953 1.1214954
-0.27169812 0.11320755 1.1320754
-0.26603773 0.11320755 1.1320754
-0.26037735 0.11320755 1.1320754
-0.25471699 0.11320755 1.1320754
-0.24905661 0.11320755 1.1320754
-0.24339622 0.11320755 1.1320754
-0.23773585 0.11320755 1.1320754
-0.23207547 0.11320755 1.1320754
-0.2264151 0.11320755 1.1320754
-0.21869159 0.11214953 1.1214954
-0.21308412 0.11214953 1.1214954
-0.20747663 0.11214953 1.1214954
-0.19816513 0.11009175 1.1009175
-0.19266056 0.11009175 1.1009175
-0.18378378 0.10810811 1.081081
-0.17837837 0.10810811 1.081081
-0.17297298 0.10810811 1.081081
-0.16607143 0.10714286 1.0714285
-0.15929204 0.10619469 1.0619469
-0.1539823 0.10619469 1.0619469
-0.14867257 0.10619469 1.0619469
-0.14210527 0.10526316 1.0526316
-0.13448276 0.10344828 1.0344827
-0.12820514 0.1025641 1.0256411
-0.12307692 0.1025641 1.0256411
-0.11794872 0.1025641 1.0256411
-0.11186441 0.10169491 1.0169492
-0.10677966 0.10169491 1.0169492
-0.10084034 0.10084034 1.0084034
-0.094999999 0.1 1
-0.090000004 0.1 1
-0.085000001 0.1 1
-0.079999998 0.1 1
-0.073770493 0.098360658 0.98360658
-0.068852462 0.098360658 0.98360658
-0.063934423 0.098360658 0.98360658
-0.059016392 0.098360658 0.98360658
-0.05409836 0.098360658 0.98360658
-0.048 0.096000001 0.95999998
-0.043200001 0.096000001 0.95999998
-0.038400002 0.096000001 0.95999998
-0.033599999 0.096000001 0.95999998
-0.0288 0.096000001 0.95999998
-0.0093750004 0.09375 0.9375
0.026966292 0.13483146 1.3483146
0.033333335 0.13333334 1.3333334
0.039999999 0.13333334 1.3333334
0.046666667 0.13333334 1.3333334
0.053333335 0.13333334 1.3333334
0.05934066 0.13186814 1.3186814
0.065934069 0.13186814 1.3186814
0.072527476 0.13186814 1.3186814
0.079120882 0.13186814 1.3186814
0.084782608 0.13043478 1.3043479
0.092307694 0.13186814 1.3186814
0.0989011 0.13186814 1.3186814
0.10434783 0.13043478 1.3043479
0.11086956 0.13043478 1.3043479
0.1173913 0.13043478 1.3043479
0.12391304 0.13043478 1.3043479
0.13043478 0.13043478 1.3043479
0.13695653 0.13043478 1.3043479
0.14347826 0.13043478 1.3043479
0.15000001 0.13043478 1.3043479
0.15652174 0.13043478 1.3043479
0.16304348 0.13043478 1.3043479
0.16956522 0.13043478 1.3043479
0.17608696 0.13043478 1.3043479
0.18260869 0.13043478 1.3043479
0.18913044 0.13043478 1.3043479
0.19354838 0.12903225 1.2903225
0.2 0.12903225 1.2903225
0.20869565 0.13043478 1.3043479
0.2152174 0.13043478 1.3043479
0.21935484 0.12903225 1.2903225
0.22826087 0.13043478 1.3043479
0.23478261 0.13043478 1.3043479
0.24130435 0.13043478 1.3043479
0.24782608 0.13043478 1.3043479
0.25434783 0.13043478 1.3043479
0.26373628 0.13186814 1.3186814
0.27032968 0.13186814 1.3186814
0.27692309 0.13186814 1.3186814
0.2835165 0.13186814 1.3186814
0.29333332 0.13333334 1.3333334
0.30000001 0.13333334 1.3333334
0.30666667 0.13333334 1.3333334
0.31333333 0.13333334 1.3333334
0.32359549 0.13483146 1.3483146
0.33409092 0.13636364 1.3636364
0.34090909 0.13636364 1.3636364
0.34772727 0.13636364 1.3636364
0.35454544 0.13636364 1.3636364
0.36551723 0.13793103 1.3793104
-0.38076922 0.12115385 1.1538461
-0.375 0.12115385 1.1538461
-0.36923078 0.12115385 1.1538461
-0.36346152 0.12115385 1.1538461
-0.3576923 0.12115385 1.1538461
-0.34857142 0.12 1.1428572
-0.34285715 0.12 1.1428572
-0.33714285 0.12 1.1428572
-0.32830188 0.11886793 1.1320754
-0.32264152 0.11886793 1.1320754
-0.31698114 0.11886793 1.1320754
-0.31132075 0.11886793 1.1320754
-0.30566037 0.11886793 1.1320754
-0.30000001 0.11886793 1.1320754
-0.29433963 0.11886793 1.1320754
-0.28867924 0.11886793 1.1320754
-0.28037384 0.11775701 1.1214954
-0.2773585 0.11886793 1.1320754
-0.27169812 0.11886793 1.1320754
-0.26603773 0.11886793 1.1320754
-0.26037735 0.11886793 1.1320754
-0.25471699 0.11886793 1.1320754
-0.24905661 0.11886793 1.1320754
-0.24339622 0.11886793 1.1320754
-0.23773585 0.11886793 1.1320754
-0.23207547 0.11886793 1.1320754
-0.2264151 0.11886793 1.1320754
-0.22075471 0.11886793 1.1320754
-0.21308412 0.11775701 1.1214954
-0.20555556 0.11666667 1.1111112
-0.19816513 0.11559633 1.1009175
-0.19266056 0.11559633 1.1009175
-0.18715596 0.11559633 1.1009175
-0.17837837 0.11351351 1.081081
-0.17297298 0.11351351 1.081081
-0.16607143 0.1125 1.0714285
-0.15929204 0.11150443 1.0619469
-0.1539823 0.11150443 1.0619469
-0.14736842 0.11052632 1.0526316
-0.14210527 0.11052632 1.0526316
-0.13565217 0.10956522 1.0434783
-0.13043478 0.10956522 1.0434783
-0.12307692 0.10769231 1.0256411
-0.11794872 0.10769231 1.0256411
-0.11186441 0.10677966 1.0169492
-0.10677966 0.10677966 1.0169492
-0.10084034 0.10588235 1.0084034
-0.094999999 0.105 1
-0.090000004 0.105 1
-0.085000001 0.105 1
-0.079338841 0.10413224 0.99173552
-0.074380167 0.10413224 0.99173552
-0.068852462 0.10327869 0.98360658
-0.063934423 0.10327869 0.98360658
-0.059016392 0.10327869 0.98360658
-0.05409836 0.10327869 0.98360658
-0.038400002 0.1008 0.95999998
-0.0068965517 0.14482759 1.3793104
0 0.14482759 1.3793104
0.020454545 0.14318182 1.3636364
0.026966292 0.14157303 1.3483146
0.033707865 0.14157303 1.3483146
0.039999999 0.14 1.3333334
0.046666667 0.14 1.3333334
0.053333335 0.14 1.3333334
0.059999999 0.14 1.3333334
0.06666667 0.14 1.3333334
0.072527476 0.13846155 1.3186814
0.079120882 0.13846155 1.3186814
0.085714288 0.13846155 1.3186814
0.092307694 0.13846155 1.3186814
0.0989011 0.13846155 1.3186814
0.10434783 0.13695653 1.3043479
0.11086956 0.13695653 1.3043479
0.1173913 0.13695653 1.3043479
0.12391304 0.13695653 1.3043479
0.13043478 0.13695653 1.3043479
0.13695653 0.13695653 1.3043479
0.14347826 0.13695653 1.3043479
0.15000001 0.13695653 1.3043479
0.15652174 0.13695653 1.3043479
0.16304348 0.13695653 1.3043479
0.16956522 0.13695653 1.3043479
0.17608696 0.13695653 1.3043479
0.18260869 0.13695653 1.3043479
0.18913044 0.13695653 1.3043479
0.19354838 0.13548388 1.2903225
0.20217392 0.13695653 1.3043479
0.20869565 0.13695653 1.3043479
0.2152174 0.13695653 1.3043479
0.22173913 0.13695653 1.3043479
0.22826087 0.13695653 1.3043479
0.23478261 0.13695653 1.3043479
0.24130435 0.13695653 1.3043479
0.24782608 0.13695653 1.3043479
0.25434783 0.13695653 1.3043479
0.26373628 0.13846155 1.3186814
0.27032968 0.13846155 1.3186814
0.27692309 0.13846155 1.3186814
0.28666666 0.14 1.3333334
0.29333332 0.14 1.3333334
0.30000001 0.14 1.3333334
0.30666667 0.14 1.3333334
0.31685394 0.14157303 1.3483146
0.32359549 0.14157303 1.3483146
0.33033708 0.14157303 1.3483146
0.34090909 0.14318182 1.3636364
0.34772727 0.14318182 1.3636364
0.35454544 0.14318182 1.3636364
-0.38076922 0.12692308 1.1538461
-0.375 0.12692308 1.1538461
-0.36923078 0.12692308 1.1538461
-0.36346152 0.12692308 1.1538461
-0.35428572 0.12571429 1.1428572
-0.34857142 0.12571429 1.1428572
-0.34285715 0.12571429 1.1428572
-0.33714285 0.12571429 1.1428572
-0.32830188 0.1245283 1.1320754
-0.32264152 0.1245283 1.1320754
-0.31698114 0.1245283 1.1320754
-0.31132075 0.1245283 1.1320754
-0.30566037 0.1245283 1.1320754
-0.30000001 0.1245283 1.1320754
-0.29433963 0.1245283 1.1320754
-0.28867924 0.1245283 1.1320754
-0.28301886 0.1245283 1.1320754
-0.2773585 0.1245283 1.1320754
-0.27169812 0.1245283 1.1320754
-0.26603773 0.1245283 1.1320754
-0.26037735 0.1245283 1.1320754
-0.25471699 0.1245283 1.1320754
-0.24905661 0.1245283 1.1320754
-0.24339622 0.1245283 1.1320754
-0.23773585 0.1245283 1.1320754
-0.23207547 0.1245283 1.1320754
-0.2264151 0.1245283 1.1320754
-0.22075471 0.1245283 1.1320754
-0.21111111 0.12222222 1.1111112
-0.20555556 0.12222222 1.1111112
-0.2 0.12222222 1.1111112
-0.19266056 0.12110092 1.1009175
-0.18715596 0.12110092 1.1009175
-0.17837837 0.11891892 1.081081
-0.17297298 0.11891892 1.081081
-0.16756757 0.11891892 1.081081
-0.15929204 0.11681416 1.0619469
-0.15535714 0.11785714 1.0714285
-0.14736842 0.11578947 1.0526316
-0.14210527 0.11578947 1.0526316
-0.13565217 0.11478261 1.0434783
-0.13043478 0.11478261 1.0434783
-0.12521739 0.11478261 1.0434783
-0.11794872 0.11282051 1.0256411
-0.11282051 0.11282051 1.0256411
-0.10677966 0.11186441 1.0169492
-0.10084034 0.11092437 1.0084034
-0.096610166 0.11186441 1.0169492
-0.091525421 0.11186441 1.0169492
-0.085000001 0.11 1
-0.079338841 0.10909091 0.99173552
-0.074380167 0.10909091 0.99173552
-0.069421485 0.10909091 0.99173552
-0.063934423 0.10819672 0.98360658
-0.059016392 0.10819672 0.98360658
-0.05409836 0.10819672 0.98360658
-0.020689655 0.15172414 1.3793104
-0.013793103 0.15172414 1.3793104
-0.0068965517 0.15172414 1.3793104
0 0.15172414 1.3793104
0.0068965517 0.15172414 1.3793104
0.013793103 0.15172414 1.3793104
0.020454545 0.15000001 1.3636364
0.027272727 0.15000001 1.3636364
0.033707865 0.14831461 1.3483146
0.040449437 0.14831461 1.3483146
0.046666667 0.14666666 1.3333334
0.053333335 0.14666666 1.3333334
0.059999999 0.14666666 1.3333334
0.06666667 0.14666666 1.3333334
0.07333333 0.14666666 1.3333334
0.079120882 0.14505495 1.3186814
0.085714288 0.14505495 1.3186814
0.092307694 0.14505495 1.3186814
0.0989011 0.14505495 1.3186814
0.10549451 0.14505495 1.3186814
0.11086956 0.14347826 1.3043479
0.1173913 0.14347826 1.3043479
0.12527473 0.14505495 1.3186814
0.13043478 0.14347826 1.3043479
0.13695653 0.14347826 1.3043479
0.14347826 0.14347826 1.3043479
0.15000001 0.14347826 1.3043479
0.15652174 0.14347826 1.3043479
0.16304348 0.14347826 1.3043479
0.16956522 0.14347826 1.3043479
0.17608696 0.14347826 1.3043479
0.18260869 0.14347826 1.3043479
0.18913044 0.14347826 1.3043479
0.19565217 0.14347826 1.3043479
0.20217392 0.14347826 1.3043479
0.20869565 0.14347826 1.3043479
0.2152174 0.14347826 1.3043479
0.22173913 0.14347826 1.3043479
0.22826087 0.14347826 1.3043479
0.23478261 0.14347826 1.3043479
0.24130435 0.14347826 1.3043479
0.24782608 0.14347826 1.3043479
0.25434783 0.14347826 1.3043479
0.26666668 0.14666666 1.3333334
0.27333334 0.14666666 1.3333334
0.28 0.14666666 1.3333334
0.28666666 0.14666666 1.3333334
0.29662922 0.14831461 1.3483146
0.30337077 0.14831461 1.3483146
0.31011236 0.14831461 1.3483146
0.31685394 0.14831461 1.3483146
0.32359549 0.14831461 1.3483146
0.33033708 0.14831461 1.3483146
0.33707866 0.14831461 1.3483146
-0.38076922 0.13269231 1.1538461
-0.375 0.13269231 1.1538461
-0.36923078 0.13269231 1.1538461
-0.36000001 0.13142857 1.1428572
-0.35428572 0.13142857 1.1428572
-0.34857142 0.13142857 1.1428572
-0.34285715 0.13142857 1.1428572
-0.33714285 0.13142857 1.1428572
-0.32830188 0.13018867 1.1320754
-0.32571429 0.13142857 1.1428572
-0.31999999 0.13142857 1.1428572
-0.31132075 0.13018867 1.1320754
-0.30566037 0.13018867 1.1320754
-0.30000001 0.13018867 1.1320754
-0.29433963 0.13018867 1.1320754
-0.28867924 0.13018867 1.1320754
-0.28301886 0.13018867 1.1320754
-0.2773585 0.13018867 1.1320754
-0.27169812 0.13018867 1.1320754
-0.26603773 0.13018867 1.1320754
-0.26037735 0.13018867 1.1320754
-0.25471699 0.13018867 1.1320754
-0.24905661 0.13018867 1.1320754
-0.24339622 0.13018867 1.1320754
-0.23773585 0.13018867 1.1320754
-0.23207547 0.13018867 1.1320754
-0.2264151 0.13018867 1.1320754
-0.22075471 0.13018867 1.1320754
-0.21509434 0.13018867 1.1320754
-0.20943396 0.13018867 1.1320754
-0.2 0.12777779 1.1111112
-0.19266056 0.12660551 1.1009175
-0.18715596 0.12660551 1.1009175
-0.18165137 0.12660551 1.1009175
-0.17454545 0.12545455 1.0909091
-0.16756757 0.12432432 1.081081
-0.16216215 0.12432432 1.081081
-0.15535714 0.12321428 1.0714285
-0.15000001 0.12321428 1.0714285
-0.14210527 0.12105263 1.0526316
-0.13565217 0.12 1.0434783
-0.13043478 0.12 1.0434783
-0.12521739 0.12 1.0434783
-0.11794872 0.11794872 1.0256411
-0.11282051 0.11794872 1.0256411
-0.10677966 0.11694916 1.0169492
-0.10169491 0.11694916 1.0169492
-0.096610166 0.11694916 1.0169492
-0.091525421 0.11694916 1.0169492
-0.086440675 0.11694916 1.0169492
-0.079338841 0.11404958 0.99173552
-0.074380167 0.11404958 0.99173552
-0.069421485 0.11404958 0.99173552
-0.064462811 0.11404958 0.99173552
-0.020689655 0.15862069 1.3793104
-0.013793103 0.15862069 1.3793104
-0.0068965517 0.15862069 1.3793104
0 0.15862069 1.3793104
0.0068965517 0.15862069 1.3793104
0.013793103 0.15862069 1.3793104
0.020454545 0.15681818 1.3636364
0.027272727 0.15681818 1.3636364
0.03409091 0.15681818 1.3636364
0.040449437 0.15505618 1.3483146
0.047191013 0.15505618 1.3483146
0.053932585 0.15505618 1.3483146
0.059999999 0.15333334 1.3333334
0.06666667 0.15333334 1.3333334
0.07333333 0.15333334 1.3333334
0.079999998 0.15333334 1.3333334
0.085714288 0.15164836 1.3186814
0.092307694 0.15164836 1.3186814
0.0989011 0.15164836 1.3186814
0.10549451 0.15164836 1.3186814
0.11208791 0.15164836 1.3186814
0.11868132 0.15164836 1.3186814
0.12527473 0.15164836 1.3186814
0.13043478 0.15000001 1.3043479
0.13695653 0.15000001 1.3043479
0.14347826 0.15000001 1.3043479
0.15164836 0.15164836 1.3186814
0.15652174 0.15000001 1.3043479
0.16304348 0.15000001 1.3043479
0.17142858 0.15164836 1.3186814
0.17802198 0.15164836 1.3186814
0.18461539 0.15164836 1.3186814
0.19120879 0.15164836 1.3186814
0.19565217 0.15000001 1.3043479
0.20217392 0.15000001 1.3043479
0.20869565 0.15000001 1.3043479
0.2152174 0.15000001 1.3043479
0.22417583 0.15164836 1.3186814
0.23076923 0.15164836 1.3186814
0.23478261 0.15000001 1.3043479
0.24130435 0.15000001 1.3043479
0.25054947 0.15164836 1.3186814
0.25714287 0.15164836 1.3186814
0.26666668 0.15333334 1.3333334
0.27333334 0.15333334 1.3333334
0.28 0.15333334 1.3333334
0.28988764 0.15505618 1.3483146
0.29662922 0.15505618 1.3483146
0.30337077 0.15505618 1.3483146
0.31363636 0.15681818 1.3636364
0.32045454 0.15681818 1.3636364
0.32359549 0.15505618 1.3483146
0.33033708 0.15505618 1.3483146
0.33707866 0.15505618 1.3483146
-0.38653848 0.13846155 1.1538461
-0.38076922 0.13846155 1.1538461
-0.375 0.13846155 1.1538461
-0.36923078 0.13846155 1.1538461
-0.36346152 0.13846155 1.1538461
-0.3576923 0.13846155 1.1538461
-0.34857142 0.13714285 1.1428572
-0.34285715 0.13714285 1.1428572
-0.33714285 0.13714285 1.1428572
-0.33142856 0.13714285 1.1428572
-0.32571429 0.13714285 1.1428572
-0.31999999 0.13714285 1.1428572
-0.31132075 0.13584906 1.1320754
-0.30566037 0.13584906 1.1320754
-0.30000001 0.13584906 1.1320754
-0.29433963 0.13584906 1.1320754
-0.28867924 0.13584906 1.1320754
-0.28301886 0.13584906 1.1320754
-0.2773585 0.13584906 1.1320754
-0.27169812 0.13584906 1.1320754
-0.26603773 0.13584906 1.1320754
-0.26037735 0.13584906 1.1320754
-0.25471699 0.13584906 1.1320754
-0.24905661 0.13584906 1.1320754
-0.24339622 0.13584906 1.1320754
-0.23773585 0.13584906 1.1320754
-0.23207547 0.13584906 1.1320754
-0.2264151 0.13584906 1.1320754
-0.22075471 0.13584906 1.1320754
-0.21509434 0.13584906 1.1320754
-0.20943396 0.13584906 1.1320754
-0.20186916 0.13457943 1.1214954
-0.19626169 0.13457943 1.1214954
-0.18715596 0.13211009 1.1009175
-0.18165137 0.13211009 1.1009175
-0.17454545 0.13090909 1.0909091
-0.16756757 0.12972973 1.081081
-0.16216215 0.12972973 1.081081
-0.15535714 0.12857144 1.0714285
-0.15000001 0.12857144 1.0714285
-0.14464286 0.12857144 1.0714285
-0.13928571 0.12857144 1.0714285
-0.13157895 0.12631579 1.0526316
-0.12631579 0.12631579 1.0526316
-0.12105263 0.12631579 1.0526316
-0.11578947 0.12631579 1.0526316
-0.10677966 0.1220339 1.0169492
-0.10169491 0.1220339 1.0169492
-0.096610166 0.1220339 1.0169492
-0.091525421 0.1220339 1.0169492
-0.086440675 0.1220339 1.0169492
-0.074380167 0.11900827 0.99173552
-0.027586207 0.16551724 1.3793104
-0.020689655 0.16551724 1.3793104
-0.013793103 0.16551724 1.3793104
-0.0068965517 0.16551724 1.3793104
0 0.16551724 1.3793104
0.0068965517 0.16551724 1.3793104
0.013793103 0.16551724 1.3793104
0.020689655 0.16551724 1.3793104
0.027272727 0.16363636 1.3636364
0.03409091 0.16363636 1.3636364
0.040909089 0.16363636 1.3636364
0.047191013 0.16179775 1.3483146
0.053932585 0.16179775 1.3483146
0.059999999 0.16 1.3333334
0.06666667 0.16 1.3333334
0.07333333 0.16 1.3333334
0.079999998 0.16 1.3333334
0.086666666 0.16 1.3333334
0.092307694 0.15824176 1.3186814
0.1 0.16 1.3333334
0.10549451 0.15824176 1.3186814
0.11333334 0.16 1.3333334
0.11868132 0.15824176 1.3186814
0.12527473 0.15824176 1.3186814
0.13186814 0.15824176 1.3186814
0.13695653 0.15652174 1.3043479
0.14505495 0.15824176 1.3186814
0.15164836 0.15824176 1.3186814
0.15824176 0.15824176 1.3186814
0.16483517 0.15824176 1.3186814
0.17142858 0.15824176 1.3186814
0.17802198 0.15824176 1.3186814
0.18461539 0.15824176 1.3186814
0.19120879 0.15824176 1.3186814
0.1978022 0.15824176 1.3186814
0.20217392 0.15652174 1.3043479
0.20869565 0.15652174 1.3043479
0.21758242 0.15824176 1.3186814
0.22417583 0.15824176 1.3186814
0.23076923 0.15824176 1.3186814
0.23736264 0.15824176 1.3186814
0.24395604 0.15824176 1.3186814
0.25054947 0.15824176 1.3186814
0.25714287 0.15824176 1.3186814
0.26666668 0.16 1.3333334
0.27333334 0.16 1.3333334
0.28314605 0.16179775 1.3483146
0.28988764 0.16179775 1.3483146
0.29662922 0.16179775 1.3483146
0.30681819 0.16363636 1.3636364
0.31363636 0.16363636 1.3636364
0.32045454 0.16363636 1.3636364
0.32727271 0.16363636 1.3636364
0.33409092 0.16363636 1.3636364
-0.38076922 0.14423077 1.1538461
-0.375 0.14423077 1.1538461
-0.36923078 0.14423077 1.1538461
-0.36346152 0.14423077 1.1538461
-0.3576923 0.14423077 1.1538461
-0.34857142 0.14285715 1.1428572
-0.34285715 0.14285715 1.1428572
-0.33714285 0.14285715 1.1428572
-0.33142856 0.14285715 1.1428572
-0.32571429 0.14285715 1.1428572
-0.31999999 0.14285715 1.1428572
-0.31132075 0.14150943 1.1320754
-0.30566037 0.14150943 1.1320754
-0.30000001 0.14150943 1.1320754
-0.29433963 0.14150943 1.1320754
-0.28867924 0.14150943 1.1320754
-0.28301886 0.14150943 1.1320754
-0.2773585 0.14150943 1.1320754
-0.27169812 0.14150943 1.1320754
-0.26603773 0.14150943 1.1320754
-0.26037735 0.14150943 1.1320754
-0.25471699 0.14150943 1.1320754
-0.24905661 0.14150943 1.1320754
-0.24339622 0.14150943 1.1320754
-0.23773585 0.14150943 1.1320754
-0.23428571 0.14285715 1.1428572
-0.2264151 0.14150943 1.1320754
-0.22075471 0.14150943 1.1320754
-0.21509434 0.14150943 1.1320754
-0.20943396 0.14150943 1.1320754
-0.20186916 0.14018692 1.1214954
-0.19626169 0.14018692 1.1214954
-0.19245283 0.14150943 1.1320754
-0.18679245 0.14150943 1.1320754
-0.17454545 0.13636364 1.0909091
-0.16756757 0.13513513 1.081081
-0.16216215 0.13513513 1.081081
-0.15675676 0.13513513 1.081081
-0.15000001 0.13392857 1.0714285
-0.14464286 0.13392857 1.0714285
-0.13928571 0.13392857 1.0714285
-0.13157895 0.13157895 1.0526316
-0.12631579 0.13157895 1.0526316
-0.12105263 0.13157895 1.0526316
-0.096610166 0.12711865 1.0169492
-0.020689655 0.1724138 1.3793104
-0.013793103 0.1724138 1.3793104
-0.0068965517 0.1724138 1.3793104
0 0.1724138 1.3793104
0.0068965517 0.1724138 1.3793104
0.013793103 0.1724138 1.3793104
0.020689655 0.1724138 1.3793104
0.027586207 0.1724138 1.3793104
0.03409091 0.17045455 1.3636364
0.04137931 0.1724138 1.3793104
0.047191013 0.16853933 1.3483146
0.053932585 0.16853933 1.3483146
0.060674157 0.16853933 1.3483146
0.067415729 0.16853933 1.3483146
0.074157305 0.16853933 1.3483146
0.079999998 0.16666667 1.3333334
0.086666666 0.16666667 1.3333334
0.093333334 0.16666667 1.3333334
0.1 0.16666667 1.3333334
0.10666667 0.16666667 1.3333334
0.11333334 0.16666667 1.3333334
0.12 0.16666667 1.3333334
0.12527473 0.16483517 1.3186814
0.13186814 0.16483517 1.3186814
0.14 0.16666667 1.3333334
0.14666666 0.16666667 1.3333334
0.15164836 0.16483517 1.3186814
0.15824176 0.16483517 1.3186814
0.16483517 0.16483517 1.3186814
0.17142858 0.16483517 1.3186814
0.17802198 0.16483517 1.3186814
0.18461539 0.16483517 1.3186814
0.19120879 0.16483517 1.3186814
0.1978022 0.16483517 1.3186814
0.20439561 0.16483517 1.3186814
0.21098901 0.16483517 1.3186814
0.21758242 0.16483517 1.3186814
0.22417583 0.16483517 1.3186814
0.23076923 0.16483517 1.3186814
0.23999999 0.16666667 1.3333334
0.24666667 0.16666667 1.3333334
0.25054947 0.16483517 1.3186814
0.25714287 0.16483517 1.3186814
0.26666668 0.16666667 1.3333334
0.27333334 0.16666667 1.3333334
0.28314605 0.16853933 1.3483146
0.28988764 0.16853933 1.3483146
0.30000001 0.17045455 1.3636364
0.30681819 0.17045455 1.3636364
0.31363636 0.17045455 1.3636364
0.32045454 0.17045455 1.3636364
0.32727271 0.17045455 1.3636364
-0.38076922 0.15000001 1.1538461
-0.375 0.15000001 1.1538461
-0.36923078 0.15000001 1.1538461
-0.36346152 0.15000001 1.1538461
-0.3576923 0.15000001 1.1538461
-0.35192308 0.15000001 1.1538461
-0.34285715 0.14857143 1.1428572
-0.33714285 0.14857143 1.1428572
-0.33142856 0.14857143 1.1428572
-0.32571429 0.14857143 1.1428572
-0.31999999 0.14857143 1.1428572
-0.31428573 0.14857143 1.1428572
-0.30857143 0.14857143 1.1428572
-0.30000001 0.14716981 1.1320754
-0.29433963 0.14716981 1.1320754
-0.28867924 0.14716981 1.1320754
-0.28301886 0.14716981 1.1320754
-0.28 0.14857143 1.1428572
-0.2742857 0.14857143 1.1428572
-0.26857144 0.14857143 1.1428572
-0.26037735 0.14716981 1.1320754
-0.25471699 0.14716981 1.1320754
-0.24905661 0.14716981 1.1320754
-0.24571429 0.14857143 1.1428572
-0.23999999 0.14857143 1.1428572
-0.23428571 0.14857143 1.1428572
-0.22857143 0.14857143 1.1428572
-0.22075471 0.14716981 1.1320754
-0.21509434 0.14716981 1.1320754
-0.20943396 0.14716981 1.1320754
-0.20377359 0.14716981 1.1320754
-0.1981132 0.14716981 1.1320754
-0.19245283 0.14716981 1.1320754
-0.18679245 0.14716981 1.1320754
-0.18113208 0.14716981 1.1320754
-0.16756757 0.14054054 1.081081
-0.16216215 0.14054054 1.081081
-0.16111112 0.14444445 1.1111112
-0.15555556 0.14444445 1.1111112
-0.15000001 0.14444445 1.1111112
-0.14444445 0.14444445 1.1111112
-0.13157895 0.1368421 1.0526316
-0.12631579 0.1368421 1.0526316
-0.12105263 0.1368421 1.0526316
-0.020689655 0.17931035 1.3793104
-0.013793103 0.17931035 1.3793104
-0.0068965517 0.17931035 1.3793104
0 0.17931035 1.3793104
0.0068965517 0.17931035 1.3793104
0.013793103 0.17931035 1.3793104
0.020689655 0.17931035 1.3793104
0.027586207 0.17931035 1.3793104
0.034482758 0.17931035 1.3793104
0.04137931 0.17931035 1.3793104
0.048275862 0.17931035 1.3793104
0.054545455 0.17727272 1.3636364
0.061363637 0.17727272 1.3636364
0.06818182 0.17727272 1.3636364
0.074157305 0.1752809 1.3483146
0.080898874 0.1752809 1.3483146
0.087640449 0.1752809 1.3483146
0.093333334 0.17333333 1.3333334
0.1 0.17333333 1.3333334
0.10666667 0.17333333 1.3333334
0.11333334 0.17333333 1.3333334
0.12 0.17333333 1.3333334
0.12527473 0.17142858 1.3186814
0.13333334 0.17333333 1.3333334
0.14 0.17333333 1.3333334
0.14666666 0.17333333 1.3333334
0.15333334 0.17333333 1.3333334
0.15824176 0.17142858 1.3186814
0.16666667 0.17333333 1.3333334
0.17142858 0.17142858 1.3186814
0.17802198 0.17142858 1.3186814
0.18461539 0.17142858 1.3186814
0.19120879 0.17142858 1.3186814
0.1978022 0.17142858 1.3186814
0.20439561 0.17142858 1.3186814
0.21098901 0.17142858 1.3186814
0.21758242 0.17142858 1.3186814
0.22417583 0.17142858 1.3186814
0.23333333 0.17333333 1.3333334
0.23999999 0.17333333 1.3333334
0.24666667 0.17333333 1.3333334
0.25333333 0.17333333 1.3333334
0.26292136 0.1752809 1.3483146
0.26966292 0.1752809 1.3483146
0.2764045 0.1752809 1.3483146
0.28314605 0.1752809 1.3483146
0.29318181 0.17727272 1.3636364
0.30000001 0.17727272 1.3636364
0.30681819 0.17727272 1.3636364
0.31363636 0.17727272 1.3636364
0.32045454 0.17727272 1.3636364
0.32727271 0.17727272 1.3636364
-0.39029127 0.15728155 1.1650486
-0.38076922 0.15576923 1.1538461
-0.375 0.15576923 1.1538461
-0.36923078 0.15576923 1.1538461
-0.36346152 0.15576923 1.1538461
-0.3576923 0.15576923 1.1538461
-0.35192308 0.15576923 1.1538461
-0.34615386 0.15576923 1.1538461
-0.3403846 0.15576923 1.1538461
-0.33142856 0.15428571 1.1428572
-0.32571429 0.15428571 1.1428572
-0.31999999 0.15428571 1.1428572
-0.31428573 0.15428571 1.1428572
-0.30857143 0.15428571 1.1428572
-0.30285713 0.15428571 1.1428572
-0.29714286 0.15428571 1.1428572
-0.28867924 0.15283018 1.1320754
-0.2857143 0.15428571 1.1428572
-0.28 0.15428571 1.1428572
-0.2742857 0.15428571 1.1428572
-0.26857144 0.15428571 1.1428572
-0.26285714 0.15428571 1.1428572
-0.25714287 0.15428571 1.1428572
-0.25142857 0.15428571 1.1428572
-0.24571429 0.15428571 1.1428572
-0.23999999 0.15428571 1.1428572
-0.23428571 0.15428571 1.1428572
-0.22857143 0.15428571 1.1428572
-0.22285715 0.15428571 1.1428572
-0.21509434 0.15283018 1.1320754
-0.20943396 0.15283018 1.1320754
-0.20377359 0.15283018 1.1320754
-0.1981132 0.15283018 1.1320754
-0.19245283 0.15283018 1.1320754
-0.18679245 0.15283018 1.1320754
-0.18113208 0.15283018 1.1320754
-0.17884615 0.15576923 1.1538461
-0.17307693 0.15576923 1.1538461
-0.16893204 0.15728155 1.1650486
-0.16470589 0.15882353 1.1764706
-0.15000001 0.15000001 1.1111112
-0.14444445 0.15000001 1.1111112
-0.1388889 0.15000001 1.1111112
-0.0068965517 0.18620689 1.3793104
0 0.18620689 1.3793104
0.0068965517 0.18620689 1.3793104
0.013793103 0.18620689 1.3793104
0.020689655 0.18620689 1.3793104
0.027586207 0.18620689 1.3793104
0.034482758 0.18620689 1.3793104
0.04137931 0.18620689 1.3793104
0.048275862 0.18620689 1.3793104
0.054545455 0.18409091 1.3636364
0.061363637 0.18409091 1.3636364
