# .PCD v0.7 - Point Cloud Data file format
VERSION 0.7
FIELDS x y z
SIZE 4 4 4
TYPE F F F
COUNT 1 1 1
WIDTH 1485
HEIGHT 1
VIEWPOINT 0 0 0 1 0 0 0
POINTS 1485
DATA ascii
-0.094736844 0.20382775 1.6650717
-0.091866031 0.20382775 1.6650717
-0.088995218 0.20382775 1.6650717
-0.086956523 0.20579711 1.6811594
-0.084466018 0.20679611 1.6893204
-0.0815534 0.20679611 1.6893204
-0.078640774 0.20679611 1.6893204
-0.075728156 0.20679611 1.6893204
-0.073170729 0.20780487 1.697561
-0.070243903 0.20780487 1.697561
-0.067647062 0.20882353 1.7058823
-0.065024629 0.20985222 1.7142857
-0.062068965 0.20985222 1.7142857
-0.059405942 0.21089108 1.7227722
-0.056435645 0.21089108 1.7227722
-0.053731345 0.2119403 1.7313433
-0.05074627 0.2119403 1.7313433
-0.048 0.213 1.74
-0.045000002 0.213 1.74
-0.041999999 0.213 1.74
-0.039195981 0.21407035 1.7487438
-0.036180906 0.21407035 1.7487438
-0.033502538 0.21624365 1.7664975
-0.030303031 0.21515152 1.7575758
-0.02755102 0.21734694 1.7755102
-0.024489796 0.21734694 1.7755102
-0.021428572 0.21734694 1.7755102
-0.018461538 0.21846154 1.7846154
-0.015384615 0.21846154 1.7846154
-0.012307692 0.21846154 1.7846154
-0.0092783505 0.21958762 1.7938144
-0.006185567 0.21958762 1.7938144
-0.0031088083 0.22072539 1.8031088
0 0.221875 1.8125
0.003125 0.221875 1.8125
0.0062500001 0.221875 1.8125
0.0094240839 0.22303665 1.8219895
0.012565445 0.22303665 1.8219895
0.015789473 0.22421053 1.831579
0.01904762 0.22539683 1.8412699
0.022222223 0.22539683 1.8412699
0.025531914 0.22659574 1.8510638
0.028723404 0.22659574 1.8510638
0.031914894 0.22659574 1.8510638
0.035294119 0.22780749 1.8609625
0.038502675 0.22780749 1.8609625
0.042391304 0.23152174 1.8913044
0.045652173 0.23152174 1.8913044
0.048648648 0.23027027 1.8810811
0.052173913 0.23152174 1.8913044
0.055434782 0.23152174 1.8913044
0.059016392 0.23278688 1.9016393
0.062295083 0.23278688 1.9016393
0.066298343 0.23535912 1.9226519
0.069613263 0.23535912 1.9226519
0.072928175 0.23535912 1.9226519
0.076666668 0.23666666 1.9333333
0.079999998 0.23666666 1.9333333
0.083798885 0.23798883 1.9441341
0.087150835 0.23798883 1.9441341
0.091011234 0.23932584 1.9550562
0.094382025 0.23932584 1.9550562
0.098305084 0.24067797 1.9661016
0.10169491 0.24067797 1.9661016
0.10568182 0.24204545 1.9772727
0.10909091 0.24204545 1.9772727
0.11314286 0.24342857 1.9885714
0.11657143 0.24342857 1.9885714
0.12068965 0.24482758 2
0.12413793 0.24482758 2
0.1283237 0.24624278 2.0115607
0.1317919 0.24624278 2.0115607
0.13604651 0.24767442 2.0232558
0.13953489 0.24767442 2.0232558
0.14302325 0.24767442 2.0232558
0.14651163 0.24767442 2.0232558
0.15000001 0.24767442 2.0232558
-0.21016949 0.2440678 1.9661016
-0.20677966 0.2440678 1.9661016
-0.20338982 0.2440678 1.9661016
-0.2 0.2440678 1.9661016
-0.19441341 0.24134079 1.9441341
-0.19106145 0.24134079 1.9441341
-0.18563536 0.23867403 1.9226519
-0.18232045 0.23867403 1.9226519
-0.17513514 0.23351352 1.8810811
-0.1718919 0.23351352 1.8810811
-0.16595745 0.22978723 1.8510638
-0.16276596 0.22978723 1.8510638
-0.15706806 0.22617801 1.8219895
-0.153125 0.22499999 1.8125
-0.14845361 0.22268042 1.7938144
-0.14536083 0.22268042 1.7938144
-0.14010152 0.21928935 1.7664975
-0.13705584 0.21928935 1.7664975
-0.13401015 0.21928935 1.7664975
-0.12899999 0.21600001 1.74
-0.126 0.21600001 1.74
-0.12178218 0.21386139 1.7227722
-0.11650486 0.20970874 1.6893204
-0.11304348 0.20869565 1.6811594
-0.10909091 0.20669857 1.6650717
-0.1062201 0.20669857 1.6650717
-0.10236967 0.20473933 1.6492891
-0.1 0.20571429 1.6571429
-0.098076925 0.20769231 1.6730769
-0.095192306 0.20769231 1.6730769
-0.092307694 0.20769231 1.6730769
-0.089423075 0.20769231 1.6730769
-0.086956523 0.20869565 1.6811594
-0.084466018 0.20970874 1.6893204
-0.0815534 0.20970874 1.6893204
-0.078640774 0.20970874 1.6893204
-0.076097563 0.2107317 1.697561
-0.073170729 0.2107317 1.697561
-0.070588239 0.21176471 1.7058823
-0.067647062 0.21176471 1.7058823
-0.065024629 0.21280788 1.7142857
-0.062376238 0.21386139 1.7227722
-0.059405942 0.21386139 1.7227722
-0.05671642 0.21492538 1.7313433
-0.053731345 0.21492538 1.7313433
-0.05074627 0.21492538 1.7313433
-0.048241206 0.21708542 1.7487438
-0.045226131 0.21708542 1.7487438
-0.042424243 0.21818182 1.7575758
-0.039393939 0.21818182 1.7575758
-0.036363635 0.21818182 1.7575758
-0.033502538 0.21928935 1.7664975
-0.030456852 0.21928935 1.7664975
-0.02755102 0.22040816 1.7755102
-0.024489796 0.22040816 1.7755102
-0.021428572 0.22040816 1.7755102
-0.018461538 0.22153845 1.7846154
-0.015384615 0.22153845 1.7846154
-0.012371134 0.22268042 1.7938144
-0.0092783505 0.22268042 1.7938144
-0.0062176166 0.2238342 1.8031088
-0.003125 0.22499999 1.8125
0 0.22499999 1.8125
0.003125 0.22499999 1.8125
0.0062500001 0.22499999 1.8125
0.0095238099 0.22857143 1.8412699
0.012698413 0.22857143 1.8412699
0.015873017 0.22857143 1.8412699
0.01904762 0.22857143 1.8412699
0.022222223 0.22857143 1.8412699
0.02566845 0.23101604 1.8609625
0.028877005 0.23101604 1.8609625
0.03208556 0.23101604 1.8609625
0.035483871 0.23225807 1.8709677
0.039130434 0.23478261 1.8913044
0.042391304 0.23478261 1.8913044
0.045652173 0.23478261 1.8913044
0.048913043 0.23478261 1.8913044
0.052173913 0.23478261 1.8913044
0.055434782 0.23478261 1.8913044
0.059016392 0.23606557 1.9016393
0.062983423 0.23867403 1.9226519
0.066298343 0.23867403 1.9226519
0.069613263 0.23867403 1.9226519
0.07333333 0.23999999 1.9333333
0.076666668 0.23999999 1.9333333
0.079999998 0.23999999 1.9333333
0.083798885 0.24134079 1.9441341
0.087640449 0.24269663 1.9550562
0.091011234 0.24269663 1.9550562
0.094382025 0.24269663 1.9550562
0.098305084 0.2440678 1.9661016
0.10227273 0.24545455 1.9772727
0.10568182 0.24545455 1.9772727
0.10909091 0.24545455 1.9772727
0.11314286 0.24685714 1.9885714
0.11724138 0.24827586 2
0.12068965 0.24827586 2
0.12485549 0.24971098 2.0115607
0.1283237 0.24971098 2.0115607
0.1317919 0.24971098 2.0115607
0.13604651 0.2511628 2.0232558
0.13953489 0.2511628 2.0232558
0.14302325 0.2511628 2.0232558
0.14651163 0.2511628 2.0232558
-0.20677966 0.24745762 1.9661016
-0.20338982 0.24745762 1.9661016
-0.2 0.24745762 1.9661016
-0.19441341 0.24469274 1.9441341
-0.19106145 0.24469274 1.9441341
-0.18563536 0.24198896 1.9226519
-0.18232045 0.24198896 1.9226519
-0.17900552 0.24198896 1.9226519
-0.17472528 0.24065934 1.9120879
-0.16595745 0.23297872 1.8510638
-0.16276596 0.23297872 1.8510638
-0.15789473 0.23052631 1.831579
-0.15473685 0.23052631 1.831579
-0.15157895 0.23052631 1.831579
-0.14461538 0.22461538 1.7846154
-0.14153846 0.22461538 1.7846154
-0.13705584 0.22233503 1.7664975
-0.13401015 0.22233503 1.7664975
-0.12899999 0.219 1.74
-0.12475248 0.21683168 1.7227722
-0.12178218 0.21683168 1.7227722
-0.11764706 0.21470588 1.7058823
-0.11470588 0.21470588 1.7058823
-0.11121951 0.21365854 1.697561
-0.10673077 0.21057692 1.6730769
-0.10334928 0.20956938 1.6650717
-0.10047847 0.20956938 1.6650717
-0.098076925 0.21057692 1.6730769
-0.095192306 0.21057692 1.6730769
-0.092307694 0.21057692 1.6730769
-0.089855075 0.21159421 1.6811594
-0.086956523 0.21159421 1.6811594
-0.084466018 0.21262136 1.6893204
-0.0815534 0.21262136 1.6893204
-0.079024389 0.21365854 1.697561
-0.076097563 0.21365854 1.697561
-0.073170729 0.21365854 1.697561
-0.070588239 0.21470588 1.7058823
-0.067647062 0.21470588 1.7058823
-0.065024629 0.21576355 1.7142857
-0.062376238 0.21683168 1.7227722
-0.059405942 0.21683168 1.7227722
-0.05671642 0.21791045 1.7313433
-0.053731345 0.21791045 1.7313433
-0.050999999 0.219 1.74
-0.048241206 0.22010051 1.7487438
-0.045226131 0.22010051 1.7487438
-0.042424243 0.22121212 1.7575758
-0.039393939 0.22121212 1.7575758
-0.036363635 0.22121212 1.7575758
-0.033502538 0.22233503 1.7664975
-0.030612245 0.22346939 1.7755102
-0.02755102 0.22346939 1.7755102
-0.024489796 0.22346939 1.7755102
-0.021428572 0.22346939 1.7755102
-0.018461538 0.22461538 1.7846154
-0.015463918 0.2257732 1.7938144
-0.012371134 0.2257732 1.7938144
-0.0092783505 0.2257732 1.7938144
-0.0062176166 0.226943 1.8031088
-0.0031413613 0.22931938 1.8219895
0 0.22931938 1.8219895
0.0031578948 0.23052631 1.831579
0.0063492064 0.23174603 1.8412699
0.0095238099 0.23174603 1.8412699
0.012765957 0.23297872 1.8510638
0.015957447 0.23297872 1.8510638
0.019148936 0.23297872 1.8510638
0.022340426 0.23297872 1.8510638
0.02566845 0.2342246 1.8609625
0.028877005 0.2342246 1.8609625
0.032258064 0.23548387 1.8709677
0.035483871 0.23548387 1.8709677
0.039130434 0.23804347 1.8913044
0.042391304 0.23804347 1.8913044
0.045652173 0.23804347 1.8913044
0.048913043 0.23804347 1.8913044
0.052459016 0.23934427 1.9016393
0.055737704 0.23934427 1.9016393
0.059668507 0.24198896 1.9226519
0.062983423 0.24198896 1.9226519
0.066298343 0.24198896 1.9226519
0.07 0.24333334 1.9333333
0.07333333 0.24333334 1.9333333
0.076666668 0.24333334 1.9333333
0.080898874 0.24606742 1.9550562
0.084269665 0.24606742 1.9550562
0.087640449 0.24606742 1.9550562
0.091525421 0.24745762 1.9661016
0.094915256 0.24745762 1.9661016
0.098863639 0.24886364 1.9772727
0.10227273 0.24886364 1.9772727
0.10628571 0.25028571 1.9885714
0.11034483 0.25172412 2
0.1137931 0.25172412 2
0.11724138 0.25172412 2
0.12138728 0.25317919 2.0115607
0.12485549 0.25317919 2.0115607
0.1283237 0.25317919 2.0115607
0.1317919 0.25317919 2.0115607
0.13604651 0.25465116 2.0232558
0.13953489 0.25465116 2.0232558
0.14302325 0.25465116 2.0232558
-0.22366863 0.2627219 2.0591717
-0.22011834 0.2627219 2.0591717
-0.21656805 0.2627219 2.0591717
-0.21052632 0.25964913 2.0350878
-0.20228571 0.25371429 1.9885714
-0.19885714 0.25371429 1.9885714
-0.19542857 0.25371429 1.9885714
-0.18563536 0.24530387 1.9226519
-0.18232045 0.24530387 1.9226519
-0.17802198 0.24395604 1.9120879
-0.17472528 0.24395604 1.9120879
-0.17142858 0.24395604 1.9120879
-0.16276596 0.23617022 1.8510638
-0.15789473 0.23368421 1.831579
-0.15473685 0.23368421 1.831579
-0.15157895 0.23368421 1.831579
-0.14461538 0.22769231 1.7846154
-0.14153846 0.22769231 1.7846154
-0.13705584 0.2253807 1.7664975
-0.13401015 0.2253807 1.7664975
-0.13096447 0.2253807 1.7664975
-0.12663317 0.22311558 1.7487438
-0.12178218 0.21980198 1.7227722
-0.11764706 0.21764706 1.7058823
-0.11414634 0.21658537 1.697561
-0.11121951 0.21658537 1.697561
-0.10673077 0.21346153 1.6730769
-0.10334928 0.21244019 1.6650717
-0.10047847 0.21244019 1.6650717
-0.098550722 0.21449275 1.6811594
-0.09565217 0.21449275 1.6811594
-0.092753626 0.21449275 1.6811594
-0.089855075 0.21449275 1.6811594
-0.086956523 0.21449275 1.6811594
-0.084466018 0.21553399 1.6893204
-0.081951216 0.21658537 1.697561
-0.079024389 0.21658537 1.697561
-0.076470591 0.21764706 1.7058823
-0.073529415 0.21764706 1.7058823
-0.070935957 0.21871921 1.7142857
-0.067980297 0.21871921 1.7142857
-0.065671645 0.22089553 1.7313433
-0.06268657 0.22089553 1.7313433
-0.059701491 0.22089553 1.7313433
-0.05671642 0.22089553 1.7313433
-0.054000001 0.222 1.74
-0.050999999 0.222 1.74
-0.048241206 0.22311558 1.7487438
-0.045226131 0.22311558 1.7487438
-0.042424243 0.22424242 1.7575758
-0.039593909 0.2253807 1.7664975
-0.036548223 0.2253807 1.7664975
-0.033502538 0.2253807 1.7664975
-0.030612245 0.22653061 1.7755102
-0.02755102 0.22653061 1.7755102
-0.024489796 0.22653061 1.7755102
-0.021428572 0.22653061 1.7755102
-0.018750001 0.23125 1.8125
-0.015625 0.23125 1.8125
-0.0125 0.23125 1.8125
-0.0093750004 0.23125 1.8125
-0.0062827226 0.23246074 1.8219895
-0.0031413613 0.23246074 1.8219895
0 0.23368421 1.831579
0.0031578948 0.23368421 1.831579
0.0063492064 0.23492064 1.8412699
0.0095238099 0.23492064 1.8412699
0.012765957 0.23617022 1.8510638
0.015957447 0.23617022 1.8510638
0.019148936 0.23617022 1.8510638
0.022340426 0.23617022 1.8510638
0.025945947 0.23999999 1.8810811
0.02918919 0.23999999 1.8810811
0.032258064 0.23870967 1.8709677
0.035675675 0.23999999 1.8810811
0.03891892 0.23999999 1.8810811
0.042391304 0.24130435 1.8913044
0.045652173 0.24130435 1.8913044
0.04945055 0.24395604 1.9120879
0.052459016 0.24262296 1.9016393
0.056353591 0.24530387 1.9226519
0.059668507 0.24530387 1.9226519
0.062983423 0.24530387 1.9226519
0.066298343 0.24530387 1.9226519
0.07 0.24666667 1.9333333
0.073743016 0.2480447 1.9441341
0.077094972 0.2480447 1.9441341
0.080898874 0.2494382 1.9550562
0.084269665 0.2494382 1.9550562
0.087640449 0.2494382 1.9550562
0.091525421 0.25084746 1.9661016
0.094915256 0.25084746 1.9661016
0.098863639 0.25227273 1.9772727
0.10285714 0.25371429 1.9885714
0.10628571 0.25371429 1.9885714
0.10971428 0.25371429 1.9885714
0.1137931 0.2551724 2
0.11791907 0.25664741 2.0115607
0.12138728 0.25664741 2.0115607
0.1255814 0.25813952 2.0232558
0.12906976 0.25813952 2.0232558
0.13255814 0.25813952 2.0232558
0.13604651 0.25813952 2.0232558
0.13953489 0.25813952 2.0232558
0.14302325 0.25813952 2.0232558
-0.22366863 0.26627219 2.0591717
-0.22011834 0.26627219 2.0591717
-0.21656805 0.26627219 2.0591717
-0.21052632 0.2631579 2.0350878
-0.20228571 0.25714287 1.9885714
-0.19885714 0.25714287 1.9885714
-0.19542857 0.25714287 1.9885714
-0.1877095 0.25139666 1.9441341
-0.18435754 0.25139666 1.9441341
-0.17802198 0.24725275 1.9120879
-0.17472528 0.24725275 1.9120879
-0.16956522 0.24456522 1.8913044
-0.16630435 0.24456522 1.8913044
-0.16304348 0.24456522 1.8913044
-0.15721925 0.24064171 1.8609625
-0.1540107 0.24064171 1.8609625
-0.14611399 0.23316061 1.8031088
-0.14300518 0.23316061 1.8031088
-0.13989638 0.23316061 1.8031088
-0.13401015 0.2284264 1.7664975
-0.12964824 0.22613065 1.7487438
-0.12663317 0.22613065 1.7487438
-0.12361809 0.22613065 1.7487438
-0.11881188 0.22277227 1.7227722
-0.11414634 0.21951219 1.697561
-0.11176471 0.22058824 1.7058823
-0.10673077 0.21634616 1.6730769
-0.10334928 0.21531101 1.6650717
-0.10047847 0.21531101 1.6650717
-0.098550722 0.2173913 1.6811594
-0.09565217 0.2173913 1.6811594
-0.09320388 0.2184466 1.6893204
-0.090291262 0.2184466 1.6893204
-0.087378643 0.2184466 1.6893204
-0.08529412 0.22058824 1.7058823
-0.082352944 0.22058824 1.7058823
-0.079411767 0.22058824 1.7058823
-0.076470591 0.22058824 1.7058823
-0.073529415 0.22058824 1.7058823
-0.070935957 0.22167487 1.7142857
-0.068316832 0.22277227 1.7227722
-0.065671645 0.2238806 1.7313433
-0.06268657 0.2238806 1.7313433
-0.059701491 0.2238806 1.7313433
-0.057286434 0.22613065 1.7487438
-0.054271355 0.22613065 1.7487438
-0.051515151 0.22727273 1.7575758
-0.048484847 0.22727273 1.7575758
-0.04568528 0.2284264 1.7664975
-0.042857144 0.22959183 1.7755102
-0.039593909 0.2284264 1.7664975
-0.036923077 0.23076923 1.7846154
-0.033846155 0.23076923 1.7846154
-0.030769231 0.23076923 1.7846154
-0.027835052 0.23195876 1.7938144
-0.024870466 0.23316061 1.8031088
-0.021761658 0.23316061 1.8031088
-0.018750001 0.234375 1.8125
-0.015625 0.234375 1.8125
-0.0125 0.234375 1.8125
-0.0094240839 0.2356021 1.8219895
-0.0062827226 0.2356021 1.8219895
-0.0031578948 0.23684211 1.831579
0 0.23684211 1.831579
0.0031578948 0.23684211 1.831579
0.0063492064 0.23809524 1.8412699
0.0095744682 0.2393617 1.8510638
0.012765957 0.2393617 1.8510638
0.015957447 0.2393617 1.8510638
0.019354839 0.24193548 1.8709677
0.022580646 0.24193548 1.8709677
0.025945947 0.24324325 1.8810811
0.02918919 0.24324325 1.8810811
0.032432433 0.24324325 1.8810811
0.035675675 0.24324325 1.8810811
0.03891892 0.24324325 1.8810811
0.04262295 0.24590164 1.9016393
0.046153847 0.24725275 1.9120879
0.04945055 0.24725275 1.9120879
0.052747253 0.24725275 1.9120879
0.056353591 0.24861878 1.9226519
0.059668507 0.24861878 1.9226519
0.063333333 0.25 1.9333333
0.06666667 0.25 1.9333333
0.070391059 0.25139666 1.9441341
0.073743016 0.25139666 1.9441341
0.077528089 0.25280899 1.9550562
0.080898874 0.25280899 1.9550562
0.084269665 0.25280899 1.9550562
0.088135593 0.25423729 1.9661016
0.092045456 0.25568181 1.9772727
0.095454544 0.25568181 1.9772727
0.099428572 0.25714287 1.9885714
0.10285714 0.25714287 1.9885714
0.10628571 0.25714287 1.9885714
0.11034483 0.25862068 2
0.1137931 0.25862068 2
0.11791907 0.26011559 2.0115607
0.12209302 0.26162791 2.0232558
0.1255814 0.26162791 2.0232558
0.12906976 0.26162791 2.0232558
0.13255814 0.26162791 2.0232558
0.13604651 0.26162791 2.0232558
-0.22721894 0.26982248 2.0591717
-0.22366863 0.26982248 2.0591717
-0.22011834 0.26982248 2.0591717
-0.21656805 0.26982248 2.0591717
-0.21052632 0.26666668 2.0350878
-0.20581396 0.26511627 2.0232558
-0.19885714 0.26057142 1.9885714
-0.19322033 0.25762713 1.9661016
-0.18983051 0.25762713 1.9661016
-0.18435754 0.25474861 1.9441341
-0.18100558 0.25474861 1.9441341
-0.17282608 0.24782608 1.8913044
-0.16956522 0.24782608 1.8913044
-0.16630435 0.24782608 1.8913044
-0.16304348 0.24782608 1.8913044
-0.15721925 0.24385026 1.8609625
-0.1540107 0.24385026 1.8609625
-0.14842105 0.23999999 1.831579
-0.14300518 0.23626943 1.8031088
-0.13917525 0.23505154 1.7938144
-0.13538462 0.23384616 1.7846154
-0.13230769 0.23384616 1.7846154
-0.12663317 0.22914574 1.7487438
-0.123 0.228 1.74
-0.11881188 0.22574258 1.7227722
-0.11470588 0.22352941 1.7058823
-0.11176471 0.22352941 1.7058823
-0.10882353 0.22352941 1.7058823
-0.10334928 0.21818182 1.6650717
-0.10194175 0.22135922 1.6893204
-0.099029124 0.22135922 1.6893204
-0.096116506 0.22135922 1.6893204
-0.09320388 0.22135922 1.6893204
-0.090291262 0.22135922 1.6893204
-0.087804876 0.22243902 1.697561
-0.08529412 0.22352941 1.7058823
-0.082352944 0.22352941 1.7058823
-0.079411767 0.22352941 1.7058823
-0.076470591 0.22352941 1.7058823
-0.073529415 0.22352941 1.7058823
-0.071287125 0.22574258 1.7227722
-0.068316832 0.22574258 1.7227722
-0.066 0.228 1.74
-0.063000001 0.228 1.74
-0.060301509 0.22914574 1.7487438
-0.057286434 0.22914574 1.7487438
-0.054545455 0.23030303 1.7575758
-0.051515151 0.23030303 1.7575758
-0.048484847 0.23030303 1.7575758
-0.04568528 0.23147207 1.7664975
-0.042857144 0.23265307 1.7755102
-0.039795917 0.23265307 1.7755102
-0.036923077 0.23384616 1.7846154
-0.033846155 0.23384616 1.7846154
-0.030769231 0.23384616 1.7846154
-0.027835052 0.23505154 1.7938144
-0.024870466 0.23626943 1.8031088
-0.021761658 0.23626943 1.8031088
-0.018750001 0.2375 1.8125
-0.015625 0.2375 1.8125
-0.0125 0.2375 1.8125
-0.0094240839 0.23874345 1.8219895
-0.0063157897 0.23999999 1.831579
-0.0031578948 0.23999999 1.831579
0 0.23999999 1.831579
0.0031914893 0.24255319 1.8510638
0.0063829785 0.24255319 1.8510638
0.0095744682 0.24255319 1.8510638
0.012765957 0.24255319 1.8510638
0.015957447 0.24255319 1.8510638
0.019354839 0.24516129 1.8709677
0.022580646 0.24516129 1.8709677
0.025806451 0.24516129 1.8709677
0.02918919 0.24648649 1.8810811
0.032608695 0.24782608 1.8913044
0.035869565 0.24782608 1.8913044
0.039130434 0.24782608 1.8913044
0.04262295 0.24918033 1.9016393
0.045901638 0.24918033 1.9016393
0.04945055 0.25054947 1.9120879
0.053038675 0.25193369 1.9226519
0.056353591 0.25193369 1.9226519
0.059668507 0.25193369 1.9226519
0.063333333 0.25333333 1.9333333
0.06666667 0.25333333 1.9333333
0.070786513 0.25617978 1.9550562
0.074157305 0.25617978 1.9550562
0.077528089 0.25617978 1.9550562
0.080898874 0.25617978 1.9550562
0.085227273 0.2590909 1.9772727
0.088135593 0.25762713 1.9661016
0.092045456 0.2590909 1.9772727
0.095454544 0.2590909 1.9772727
0.10057803 0.26358381 2.0115607
0.10285714 0.26057142 1.9885714
0.10689655 0.26206896 2
0.11034483 0.26206896 2
0.1137931 0.26206896 2
0.11860465 0.26511627 2.0232558
0.12209302 0.26511627 2.0232558
0.1255814 0.26511627 2.0232558
0.12906976 0.26511627 2.0232558
0.13255814 0.26511627 2.0232558
0.13604651 0.26511627 2.0232558
-0.22366863 0.27337277 2.0591717
-0.22011834 0.27337277 2.0591717
-0.21656805 0.27337277 2.0591717
-0.21052632 0.27017543 2.0350878
-0.20581396 0.26860467 2.0232558
-0.20232558 0.26860467 2.0232558
-0.19322033 0.26101694 1.9661016
-0.18983051 0.26101694 1.9661016
-0.18644068 0.26101694 1.9661016
-0.18305084 0.26101694 1.9661016
-0.17377049 0.25245902 1.9016393
-0.1704918 0.25245902 1.9016393
-0.16721311 0.25245902 1.9016393
-0.16393442 0.25245902 1.9016393
-0.15721925 0.24705882 1.8609625
-0.15319149 0.24574468 1.8510638
-0.14842105 0.24315789 1.831579
-0.14450262 0.24188481 1.8219895
-0.13917525 0.23814432 1.7938144
-0.13538462 0.23692308 1.7846154
-0.13096447 0.23451777 1.7664975
-0.12791878 0.23451777 1.7664975
-0.123 0.23100001 1.74
-0.12 0.23100001 1.74
-0.117 0.23100001 1.74
-0.11176471 0.22647059 1.7058823
-0.10882353 0.22647059 1.7058823
-0.10588235 0.22647059 1.7058823
-0.10194175 0.22427185 1.6893204
-0.099029124 0.22427185 1.6893204
-0.096116506 0.22427185 1.6893204
-0.094117649 0.22647059 1.7058823
-0.091176473 0.22647059 1.7058823
-0.087804876 0.22536585 1.697561
-0.08529412 0.22647059 1.7058823
-0.082352944 0.22647059 1.7058823
-0.080597013 0.22985074 1.7313433
-0.077611938 0.22985074 1.7313433
-0.074626863 0.22985074 1.7313433
-0.071287125 0.22871287 1.7227722
-0.068999998 0.23100001 1.74
-0.066 0.23100001 1.74
-0.063316584 0.23216081 1.7487438
-0.060301509 0.23216081 1.7487438
-0.057286434 0.23216081 1.7487438
-0.054545455 0.23333333 1.7575758
-0.051515151 0.23333333 1.7575758
-0.048979592 0.23571429 1.7755102
-0.045918368 0.23571429 1.7755102
-0.042857144 0.23571429 1.7755102
-0.039795917 0.23571429 1.7755102
-0.036923077 0.23692308 1.7846154
-0.034020618 0.23814432 1.7938144
-0.030927835 0.23814432 1.7938144
-0.027835052 0.23814432 1.7938144
-0.024870466 0.23937824 1.8031088
-0.021875 0.24062499 1.8125
-0.018750001 0.24062499 1.8125
-0.015789473 0.24315789 1.831579
-0.012631579 0.24315789 1.831579
-0.0094736842 0.24315789 1.831579
-0.0063157897 0.24315789 1.831579
-0.0031746032 0.24444444 1.8412699
0 0.24444444 1.8412699
0.0031914893 0.24574468 1.8510638
0.0063829785 0.24574468 1.8510638
0.0096256686 0.24705882 1.8609625
0.012834225 0.24705882 1.8609625
0.016129032 0.2483871 1.8709677
0.019354839 0.2483871 1.8709677
0.022580646 0.2483871 1.8709677
0.026086956 0.25108695 1.8913044
0.029347826 0.25108695 1.8913044
0.032608695 0.25108695 1.8913044
0.035869565 0.25108695 1.8913044
0.039344262 0.25245902 1.9016393
0.04262295 0.25245902 1.9016393
0.046153847 0.25384617 1.9120879
0.04945055 0.25384617 1.9120879
0.053038675 0.25524861 1.9226519
0.056353591 0.25524861 1.9226519
0.059999999 0.25666666 1.9333333
0.063333333 0.25666666 1.9333333
0.06703911 0.25810057 1.9441341
0.070786513 0.25955057 1.9550562
0.074157305 0.25955057 1.9550562
0.077966101 0.26101694 1.9661016
0.081355929 0.26101694 1.9661016
0.085227273 0.26249999 1.9772727
0.088636361 0.26249999 1.9772727
0.09257143 0.264 1.9885714
0.096000001 0.264 1.9885714
0.10057803 0.26705202 2.0115607
0.10404624 0.26705202 2.0115607
0.10813954 0.26860467 2.0232558
0.11162791 0.26860467 2.0232558
0.11511628 0.26860467 2.0232558
0.11860465 0.26860467 2.0232558
0.12209302 0.26860467 2.0232558
0.1255814 0.26860467 2.0232558
0.12906976 0.26860467 2.0232558
-0.22366863 0.27692309 2.0591717
-0.22011834 0.27692309 2.0591717
-0.21656805 0.27692309 2.0591717
-0.21052632 0.2736842 2.0350878
-0.20701754 0.2736842 2.0350878
-0.20350876 0.2736842 2.0350878
-0.2 0.2736842 2.0350878
-0.18983051 0.26440677 1.9661016
-0.18644068 0.26440677 1.9661016
-0.18305084 0.26440677 1.9661016
-0.17765363 0.26145253 1.9441341
-0.17333333 0.25999999 1.9333333
-0.16721311 0.25573769 1.9016393
-0.16393442 0.25573769 1.9016393
-0.15638298 0.24893618 1.8510638
-0.15319149 0.24893618 1.8510638
-0.14842105 0.24631579 1.831579
-0.14450262 0.24502617 1.8219895
-0.140625 0.24375001 1.8125
-0.1375 0.24375001 1.8125
-0.13096447 0.23756345 1.7664975
-0.12791878 0.23756345 1.7664975
-0.12424242 0.23636363 1.7575758
-0.12 0.234 1.74
-0.11641791 0.23283581 1.7313433
-0.11287129 0.23168316 1.7227722
-0.10882353 0.22941177 1.7058823
-0.10588235 0.22941177 1.7058823
-0.10194175 0.22718446 1.6893204
-0.099029124 0.22718446 1.6893204
-0.096585363 0.22829269 1.697561
-0.094117649 0.22941177 1.7058823
-0.091176473 0.22941177 1.7058823
-0.088669948 0.23054187 1.7142857
-0.085714288 0.23054187 1.7142857
-0.08275862 0.23054187 1.7142857
-0.080597013 0.23283581 1.7313433
-0.077611938 0.23283581 1.7313433
-0.074626863 0.23283581 1.7313433
-0.071999997 0.234 1.74
-0.069346733 0.23517588 1.7487438
-0.066331655 0.23517588 1.7487438
-0.063316584 0.23517588 1.7487438
-0.060301509 0.23517588 1.7487438
-0.057286434 0.23517588 1.7487438
-0.054545455 0.23636363 1.7575758
-0.052040815 0.23877551 1.7755102
-0.048979592 0.23877551 1.7755102
-0.045918368 0.23877551 1.7755102
-0.042857144 0.23877551 1.7755102
-0.039999999 0.23999999 1.7846154
-0.037113402 0.24123712 1.7938144
-0.034020618 0.24123712 1.7938144
-0.030927835 0.24123712 1.7938144
-0.027979275 0.24248704 1.8031088
-0.025 0.24375001 1.8125
-0.021875 0.24375001 1.8125
-0.018750001 0.24375001 1.8125
-0.015789473 0.24631579 1.831579
-0.012631579 0.24631579 1.831579
-0.0094736842 0.24631579 1.831579
-0.0063492064 0.24761905 1.8412699
-0.0031746032 0.24761905 1.8412699
0 0.24893618 1.8510638
0.0031914893 0.24893618 1.8510638
0.0063829785 0.24893618 1.8510638
0.0096256686 0.25026739 1.8609625
0.012903226 0.2516129 1.8709677
0.016129032 0.2516129 1.8709677
0.019354839 0.2516129 1.8709677
0.022826087 0.25434783 1.8913044
0.026086956 0.25434783 1.8913044
0.029347826 0.25434783 1.8913044
0.032786883 0.25573769 1.9016393
0.036065575 0.25573769 1.9016393
0.039344262 0.25573769 1.9016393
0.04262295 0.25573769 1.9016393
0.046153847 0.25714287 1.9120879
0.04945055 0.25714287 1.9120879
0.053631283 0.26145253 1.9441341
0.056666669 0.25999999 1.9333333
0.059999999 0.25999999 1.9333333
0.063333333 0.25999999 1.9333333
0.06703911 0.26145253 1.9441341
0.070786513 0.26292136 1.9550562
0.074157305 0.26292136 1.9550562
0.077966101 0.26440677 1.9661016
0.081355929 0.26440677 1.9661016
0.085227273 0.26590911 1.9772727
0.088636361 0.26590911 1.9772727
0.09257143 0.26742858 1.9885714
0.097109824 0.27052024 2.0115607
0.10057803 0.27052024 2.0115607
0.10404624 0.27052024 2.0115607
0.10813954 0.27209303 2.0232558
0.11162791 0.27209303 2.0232558
0.11511628 0.27209303 2.0232558
0.11860465 0.27209303 2.0232558
0.12209302 0.27209303 2.0232558
0.1255814 0.27209303 2.0232558
0.12906976 0.27209303 2.0232558
-0.21656805 0.28047338 2.0591717
-0.21052632 0.27719298 2.0350878
-0.20701754 0.27719298 2.0350878
-0.20350876 0.27719298 2.0350878
-0.2 0.27719298 2.0350878
-0.192 0.27085716 1.9885714
-0.18644068 0.26779661 1.9661016
-0.18305084 0.26779661 1.9661016
-0.17765363 0.26480448 1.9441341
-0.17333333 0.26333332 1.9333333
-0.17 0.26333332 1.9333333
-0.16666667 0.26333332 1.9333333
-0.16065574 0.25901639 1.9016393
-0.15319149 0.25212765 1.8510638
-0.15000001 0.25212765 1.8510638
-0.14680851 0.25212765 1.8510638
-0.140625 0.246875 1.8125
-0.1375 0.246875 1.8125
-0.13367875 0.24559586 1.8031088
-0.12727273 0.23939393 1.7575758
-0.12424242 0.23939393 1.7575758
-0.12121212 0.23939393 1.7575758
-0.11641791 0.23582089 1.7313433
-0.11287129 0.23465346 1.7227722
-0.10882353 0.23235294 1.7058823
-0.10588235 0.23235294 1.7058823
-0.10194175 0.23009709 1.6893204
-0.099029124 0.23009709 1.6893204
-0.096585363 0.23121952 1.697561
-0.094117649 0.23235294 1.7058823
-0.091176473 0.23235294 1.7058823
-0.088669948 0.23349753 1.7142857
-0.085714288 0.23349753 1.7142857
-0.08275862 0.23349753 1.7142857
-0.080597013 0.23582089 1.7313433
-0.077611938 0.23582089 1.7313433
-0.075000003 0.237 1.74
-0.071999997 0.237 1.74
-0.069346733 0.23819095 1.7487438
-0.066331655 0.23819095 1.7487438
-0.063636363 0.23939393 1.7575758
-0.060606062 0.23939393 1.7575758
-0.057868019 0.24060914 1.7664975
-0.055102039 0.24183674 1.7755102
-0.052040815 0.24183674 1.7755102
-0.048979592 0.24183674 1.7755102
-0.045918368 0.24183674 1.7755102
-0.042857144 0.24183674 1.7755102
-0.039999999 0.24307692 1.7846154
-0.037113402 0.2443299 1.7938144
-0.034196891 0.24559586 1.8031088
-0.031088082 0.24559586 1.8031088
-0.027979275 0.24559586 1.8031088
-0.025 0.246875 1.8125
-0.021875 0.246875 1.8125
-0.018848168 0.24816754 1.8219895
-0.015789473 0.24947369 1.831579
-0.012631579 0.24947369 1.831579
-0.0094736842 0.24947369 1.831579
-0.0063492064 0.25079367 1.8412699
-0.0031746032 0.25079367 1.8412699
0 0.25212765 1.8510638
0.0031914893 0.25212765 1.8510638
0.0064171124 0.25347593 1.8609625
0.0096256686 0.25347593 1.8609625
0.012903226 0.25483871 1.8709677
0.016129032 0.25483871 1.8709677
0.019565217 0.25760868 1.8913044
0.022826087 0.25760868 1.8913044
0.026086956 0.25760868 1.8913044
0.029508196 0.25901639 1.9016393
0.032786883 0.25901639 1.9016393
0.036065575 0.25901639 1.9016393
0.039779004 0.26187846 1.9226519
0.04262295 0.25901639 1.9016393
0.046153847 0.26043957 1.9120879
0.05027933 0.26480448 1.9441341
0.053631283 0.26480448 1.9441341
0.05698324 0.26480448 1.9441341
0.060674157 0.26629212 1.9550562
0.064044945 0.26629212 1.9550562
0.06779661 0.26779661 1.9661016
0.071186438 0.26779661 1.9661016
0.074576274 0.26779661 1.9661016
0.078409091 0.26931819 1.9772727
0.081818178 0.26931819 1.9772727
0.085714288 0.27085716 1.9885714
0.088636361 0.26931819 1.9772727
0.093641616 0.27398843 2.0115607
0.097109824 0.27398843 2.0115607
0.10057803 0.27398843 2.0115607
0.10465116 0.27558139 2.0232558
0.10813954 0.27558139 2.0232558
0.11162791 0.27558139 2.0232558
0.11511628 0.27558139 2.0232558
0.11860465 0.27558139 2.0232558
0.12209302 0.27558139 2.0232558
-0.21052632 0.28070176 2.0350878
-0.20701754 0.28070176 2.0350878
-0.20350876 0.28070176 2.0350878
-0.2 0.28070176 2.0350878
-0.192 0.2742857 1.9885714
-0.18857142 0.2742857 1.9885714
-0.18305084 0.27118644 1.9661016
-0.17865169 0.26966292 1.9550562
-0.17333333 0.26666668 1.9333333
-0.17 0.26666668 1.9333333
-0.16393442 0.26229507 1.9016393
-0.16065574 0.26229507 1.9016393
-0.15737705 0.26229507 1.9016393
-0.15000001 0.25531915 1.8510638
-0.14680851 0.25531915 1.8510638
-0.14361702 0.25531915 1.8510638
-0.13678756 0.24870466 1.8031088
-0.13367875 0.24870466 1.8031088
-0.13056995 0.24870466 1.8031088
-0.12746114 0.24870466 1.8031088
-0.12 0.23999999 1.74
-0.117 0.23999999 1.74
-0.114 0.23999999 1.74
-0.10990099 0.23762377 1.7227722
-0.1069307 0.23762377 1.7227722
-0.10396039 0.23762377 1.7227722
-0.1 0.23529412 1.7058823
-0.097058825 0.23529412 1.7058823
-0.094581284 0.23645321 1.7142857
-0.091625616 0.23645321 1.7142857
-0.089108914 0.23762377 1.7227722
-0.086138614 0.23762377 1.7227722
-0.083582088 0.23880596 1.7313433
-0.080597013 0.23880596 1.7313433
-0.077611938 0.23880596 1.7313433
-0.075000003 0.23999999 1.74
-0.071999997 0.23999999 1.74
-0.069346733 0.24120604 1.7487438
-0.066331655 0.24120604 1.7487438
-0.063636363 0.24242425 1.7575758
-0.060913704 0.24365482 1.7664975
-0.057868019 0.24365482 1.7664975
-0.054822337 0.24365482 1.7664975
-0.052040815 0.24489796 1.7755102
-0.049230769 0.24615385 1.7846154
-0.046153847 0.24615385 1.7846154
-0.043298971 0.24742268 1.7938144
-0.040206186 0.24742268 1.7938144
-0.037113402 0.24742268 1.7938144
-0.034375001 0.25 1.8125
-0.031088082 0.24870466 1.8031088
-0.027979275 0.24870466 1.8031088
-0.025 0.25 1.8125
-0.021989528 0.25130889 1.8219895
-0.018848168 0.25130889 1.8219895
-0.015789473 0.25263157 1.831579
-0.012631579 0.25263157 1.831579
-0.0095744682 0.25531915 1.8510638
-0.0063829785 0.25531915 1.8510638
-0.0032085562 0.25668448 1.8609625
0 0.25668448 1.8609625
0.0032085562 0.25668448 1.8609625
0.0064171124 0.25668448 1.8609625
0.00972973 0.25945947 1.8810811
0.012972973 0.25945947 1.8810811
0.016216217 0.25945947 1.8810811
0.019565217 0.26086956 1.8913044
0.022826087 0.26086956 1.8913044
0.026086956 0.26086956 1.8913044
0.029508196 0.26229507 1.9016393
0.032786883 0.26229507 1.9016393
0.036464088 0.26519337 1.9226519
0.039779004 0.26519337 1.9226519
0.043333333 0.26666668 1.9333333
0.046927374 0.26815644 1.9441341
0.05027933 0.26815644 1.9441341
0.053631283 0.26815644 1.9441341
0.05698324 0.26815644 1.9441341
0.060674157 0.26966292 1.9550562
0.064406782 0.27118644 1.9661016
0.06779661 0.27118644 1.9661016
0.071186438 0.27118644 1.9661016
0.075428568 0.2742857 1.9885714
0.078409091 0.27272728 1.9772727
0.082285717 0.2742857 1.9885714
0.085714288 0.2742857 1.9885714
0.090173408 0.27745664 2.0115607
0.093641616 0.27745664 2.0115607
0.097109824 0.27745664 2.0115607
0.10057803 0.27745664 2.0115607
0.10465116 0.27906978 2.0232558
0.10877193 0.28070176 2.0350878
0.1122807 0.28070176 2.0350878
0.11578947 0.28070176 2.0350878
0.11929824 0.28070176 2.0350878
0.12280702 0.28070176 2.0350878
-0.21052632 0.28421053 2.0350878
-0.20701754 0.28421053 2.0350878
-0.20350876 0.28421053 2.0350878
-0.2 0.28421053 2.0350878
-0.192 0.27771428 1.9885714
-0.18857142 0.27771428 1.9885714
-0.18620689 0.27931035 2
-0.17865169 0.27303371 1.9550562
-0.17627119 0.27457628 1.9661016
-0.17288135 0.27457628 1.9661016
-0.16393442 0.26557377 1.9016393
-0.16065574 0.26557377 1.9016393
-0.15737705 0.26557377 1.9016393
-0.15000001 0.25851065 1.8510638
-0.14680851 0.25851065 1.8510638
-0.14285715 0.25714287 1.8412699
-0.13894737 0.25578949 1.831579
-0.13367875 0.25181347 1.8031088
-0.13056995 0.25181347 1.8031088
-0.12746114 0.25181347 1.8031088
-0.12371134 0.25051546 1.7938144
-0.11878172 0.24670051 1.7664975
-0.114 0.243 1.74
-0.10990099 0.24059406 1.7227722
-0.1069307 0.24059406 1.7227722
-0.10396039 0.24059406 1.7227722
-0.10049261 0.23940887 1.7142857
-0.097058825 0.23823529 1.7058823
-0.094581284 0.23940887 1.7142857
-0.092079207 0.24059406 1.7227722
-0.089108914 0.24059406 1.7227722
-0.086138614 0.24059406 1.7227722
-0.083999999 0.243 1.74
-0.080597013 0.24179104 1.7313433
-0.078000002 0.243 1.74
-0.075376883 0.24422111 1.7487438
-0.072361812 0.24422111 1.7487438
-0.069346733 0.24422111 1.7487438
-0.06666667 0.24545455 1.7575758
-0.063636363 0.24545455 1.7575758
-0.060913704 0.24670051 1.7664975
-0.058163267 0.24795918 1.7755102
-0.055102039 0.24795918 1.7755102
-0.052307691 0.24923077 1.7846154
-0.049230769 0.24923077 1.7846154
-0.046391752 0.25051546 1.7938144
-0.043298971 0.25051546 1.7938144
-0.040206186 0.25051546 1.7938144
-0.037500001 0.25312501 1.8125
-0.034375001 0.25312501 1.8125
-0.03125 0.25312501 1.8125
-0.028124999 0.25312501 1.8125
-0.025 0.25312501 1.8125
-0.022105264 0.25578949 1.831579
-0.018947368 0.25578949 1.831579
-0.015873017 0.25714287 1.8412699
-0.012698413 0.25714287 1.8412699
-0.0095744682 0.25851065 1.8510638
-0.0063829785 0.25851065 1.8510638
-0.0032085562 0.25989306 1.8609625
0 0.25989306 1.8609625
0.0032085562 0.25989306 1.8609625
0.0064864866 0.2627027 1.8810811
0.00972973 0.2627027 1.8810811
0.012972973 0.2627027 1.8810811
0.016216217 0.2627027 1.8810811
0.019565217 0.26413044 1.8913044
0.022826087 0.26413044 1.8913044
0.026373627 0.26703298 1.9120879
0.02967033 0.26703298 1.9120879
0.033149172 0.26850829 1.9226519
0.036464088 0.26850829 1.9226519
0.039999999 0.27000001 1.9333333
0.043333333 0.27000001 1.9333333
0.046927374 0.27150837 1.9441341
0.05027933 0.27150837 1.9441341
0.053631283 0.27150837 1.9441341
0.057627119 0.27457628 1.9661016
0.061016951 0.27457628 1.9661016
0.064406782 0.27457628 1.9661016
0.06779661 0.27457628 1.9661016
0.071999997 0.27771428 1.9885714
0.075428568 0.27771428 1.9885714
0.078857146 0.27771428 1.9885714
0.082285717 0.27771428 1.9885714
0.0867052 0.28092486 2.0115607
0.090173408 0.28092486 2.0115607
0.093641616 0.28092486 2.0115607
0.097674422 0.28255814 2.0232558
0.10057803 0.28092486 2.0115607
0.10465116 0.28255814 2.0232558
0.10877193 0.28421053 2.0350878
0.1122807 0.28421053 2.0350878
0.11578947 0.28421053 2.0350878
0.11929824 0.28421053 2.0350878
-0.20350876 0.28771931 2.0350878
-0.19542857 0.28114286 1.9885714
-0.19310345 0.28275862 2
-0.18965517 0.28275862 2
-0.18620689 0.28275862 2
-0.18275861 0.28275862 2
-0.17627119 0.27796611 1.9661016
-0.17288135 0.27796611 1.9661016
-0.16393442 0.26885247 1.9016393
-0.16065574 0.26885247 1.9016393
-0.15737705 0.26885247 1.9016393
-0.15409836 0.26885247 1.9016393
-0.14603175 0.26031747 1.8412699
-0.14285715 0.26031747 1.8412699
-0.13894737 0.25894737 1.831579
-0.13507853 0.25759163 1.8219895
-0.13056995 0.25492227 1.8031088
-0.12680413 0.25360826 1.7938144
-0.12371134 0.25360826 1.7938144
-0.11878172 0.24974619 1.7664975
-0.11515152 0.24848485 1.7575758
-0.11212121 0.24848485 1.7575758
-0.1069307 0.24356435 1.7227722
-0.10344828 0.24236453 1.7142857
-0.10049261 0.24236453 1.7142857
-0.097536944 0.24236453 1.7142857
-0.095049508 0.24356435 1.7227722
-0.092079207 0.24356435 1.7227722
-0.089108914 0.24356435 1.7227722
-0.086999997 0.24600001 1.74
-0.083999999 0.24600001 1.74
-0.081 0.24600001 1.74
-0.078000002 0.24600001 1.74
-0.075376883 0.24723618 1.7487438
-0.07272727 0.24848485 1.7575758
-0.06969697 0.24848485 1.7575758
-0.06666667 0.24848485 1.7575758
-0.063636363 0.24848485 1.7575758
-0.060913704 0.24974619 1.7664975
-0.058163267 0.2510204 1.7755102
-0.055102039 0.2510204 1.7755102
-0.052307691 0.25230768 1.7846154
-0.049230769 0.25230768 1.7846154
-0.046632126 0.25492227 1.8031088
-0.043298971 0.25360826 1.7938144
-0.040414508 0.25492227 1.8031088
-0.037500001 0.25624999 1.8125
-0.034375001 0.25624999 1.8125
-0.031413611 0.25759163 1.8219895
-0.028272251 0.25759163 1.8219895
-0.02513089 0.25759163 1.8219895
-0.022105264 0.25894737 1.831579
-0.018947368 0.25894737 1.831579
-0.015873017 0.26031747 1.8412699
-0.012698413 0.26031747 1.8412699
-0.0095744682 0.26170212 1.8510638
-0.0064516128 0.26451612 1.8709677
-0.0032258064 0.26451612 1.8709677
0 0.26451612 1.8709677
0.0032258064 0.26451612 1.8709677
0.0064864866 0.26594594 1.8810811
0.00972973 0.26594594 1.8810811
0.012972973 0.26594594 1.8810811
0.016483517 0.27032968 1.9120879
0.01978022 0.27032968 1.9120879
0.023076924 0.27032968 1.9120879
0.026373627 0.27032968 1.9120879
0.02967033 0.27032968 1.9120879
0.033149172 0.2718232 1.9226519
0.036666665 0.27333334 1.9333333
0.039999999 0.27333334 1.9333333
0.043575417 0.27486032 1.9441341
0.047191013 0.2764045 1.9550562
0.05027933 0.27486032 1.9441341
0.053932585 0.2764045 1.9550562
0.057627119 0.27796611 1.9661016
0.061016951 0.27796611 1.9661016
0.064406782 0.27796611 1.9661016
0.068571426 0.28114286 1.9885714
0.071999997 0.28114286 1.9885714
0.075428568 0.28114286 1.9885714
0.079310343 0.28275862 2
0.08275862 0.28275862 2
0.086206898 0.28275862 2
0.090173408 0.28439307 2.0115607
0.094186045 0.2860465 2.0232558
0.097674422 0.2860465 2.0232558
0.10175438 0.28771931 2.0350878
0.10588235 0.28941175 2.0470588
0.10941176 0.28941175 2.0470588
0.1122807 0.28771931 2.0350878
0.11578947 0.28771931 2.0350878
0.11929824 0.28771931 2.0350878
-0.19310345 0.2862069 2
-0.18965517 0.2862069 2
-0.18620689 0.2862069 2
-0.18275861 0.2862069 2
-0.17627119 0.28135592 1.9661016
-0.17288135 0.28135592 1.9661016
-0.16853933 0.27977529 1.9550562
-0.16516854 0.27977529 1.9550562
-0.15737705 0.27213115 1.9016393
-0.15409836 0.27213115 1.9016393
-0.14759359 0.26631016 1.8609625
-0.14438502 0.26631016 1.8609625
-0.14117648 0.26631016 1.8609625
-0.13507853 0.26073298 1.8219895
-0.13263159 0.26210526 1.831579
-0.12680413 0.25670102 1.7938144
-0.12435233 0.2580311 1.8031088
-0.11878172 0.25279188 1.7664975
-0.11515152 0.25151515 1.7575758
-0.11212121 0.25151515 1.7575758
-0.10746269 0.24776119 1.7313433
-0.10447761 0.24776119 1.7313433
-0.10049261 0.2453202 1.7142857
-0.097536944 0.2453202 1.7142857
-0.095049508 0.24653466 1.7227722
-0.092079207 0.24653466 1.7227722
-0.090000004 0.249 1.74
-0.086999997 0.249 1.74
-0.083999999 0.249 1.74
-0.081 0.249 1.74
-0.078391962 0.25025126 1.7487438
-0.075376883 0.25025126 1.7487438
-0.07272727 0.25151515 1.7575758
-0.070050761 0.25279188 1.7664975
-0.067005076 0.25279188 1.7664975
-0.06395939 0.25279188 1.7664975
-0.06122449 0.25408164 1.7755102
-0.058163267 0.25408164 1.7755102
-0.05595855 0.2580311 1.8031088
-0.05284974 0.2580311 1.8031088
-0.049740933 0.2580311 1.8031088
-0.046632126 0.2580311 1.8031088
-0.043523315 0.2580311 1.8031088
-0.040414508 0.2580311 1.8031088
-0.037500001 0.25937501 1.8125
-0.034375001 0.25937501 1.8125
-0.031413611 0.26073298 1.8219895
-0.028272251 0.26073298 1.8219895
-0.025531914 0.26489362 1.8510638
-0.022340426 0.26489362 1.8510638
-0.019148936 0.26489362 1.8510638
-0.015957447 0.26489362 1.8510638
-0.012834225 0.26631016 1.8609625
-0.0096256686 0.26631016 1.8609625
-0.0064516128 0.26774195 1.8709677
-0.0032258064 0.26774195 1.8709677
0 0.26774195 1.8709677
0.0032608695 0.27065217 1.8913044
0.0065217391 0.27065217 1.8913044
0.0097826086 0.27065217 1.8913044
0.013043478 0.27065217 1.8913044
0.016483517 0.27362639 1.9120879
0.01978022 0.27362639 1.9120879
0.023076924 0.27362639 1.9120879
0.026519338 0.27513811 1.9226519
0.029834254 0.27513811 1.9226519
0.033149172 0.27513811 1.9226519
0.036666665 0.27666667 1.9333333
0.040223464 0.27821228 1.9441341
0.043575417 0.27821228 1.9441341
0.047191013 0.27977529 1.9550562
0.050561797 0.27977529 1.9550562
0.053932585 0.27977529 1.9550562
0.057627119 0.28135592 1.9661016
0.061016951 0.28135592 1.9661016
0.065142855 0.28457144 1.9885714
0.068571426 0.28457144 1.9885714
0.071999997 0.28457144 1.9885714
0.075862072 0.2862069 2
0.079768784 0.28786126 2.0115607
0.08275862 0.2862069 2
0.087209299 0.2895349 2.0232558
0.090697676 0.2895349 2.0232558
0.094186045 0.2895349 2.0232558
0.098245613 0.29122806 2.0350878
0.10175438 0.29122806 2.0350878
0.10588235 0.29294118 2.0470588
0.10941176 0.29294118 2.0470588
0.11294118 0.29294118 2.0470588
0.11647059 0.29294118 2.0470588
-0.19883721 0.29302326 2.0232558
-0.19534884 0.29302326 2.0232558
-0.19186047 0.29302326 2.0232558
-0.18837209 0.29302326 2.0232558
-0.18488371 0.29302326 2.0232558
-0.17931035 0.28965518 2
-0.17191011 0.28314605 1.9550562
-0.16853933 0.28314605 1.9550562
-0.16516854 0.28314605 1.9550562
-0.15737705 0.27540985 1.9016393
-0.15409836 0.27540985 1.9016393
-0.15000001 0.27391306 1.8913044
-0.14438502 0.2695187 1.8609625
-0.14117648 0.2695187 1.8609625
-0.13578947 0.26526317 1.831579
-0.13263159 0.26526317 1.831579
-0.128125 0.26249999 1.8125
-0.12435233 0.2611399 1.8031088
-0.12 0.25846153 1.7846154
-0.11692308 0.25846153 1.7846154
-0.11384615 0.25846153 1.7846154
-0.10746269 0.25074628 1.7313433
-0.10447761 0.25074628 1.7313433
-0.1009901 0.24950495 1.7227722
-0.098019801 0.24950495 1.7227722
-0.096000001 0.252 1.74
-0.093000002 0.252 1.74
-0.090452261 0.25326633 1.7487438
-0.086999997 0.252 1.74
-0.084422112 0.25326633 1.7487438
-0.081407033 0.25326633 1.7487438
-0.078391962 0.25326633 1.7487438
-0.076142132 0.25583756 1.7664975
-0.073096447 0.25583756 1.7664975
-0.070408165 0.25714287 1.7755102
-0.067005076 0.25583756 1.7664975
-0.06395939 0.25583756 1.7664975
-0.06122449 0.25714287 1.7755102
-0.058762886 0.25979382 1.7938144
-0.05595855 0.2611399 1.8031088
-0.05284974 0.2611399 1.8031088
-0.049740933 0.2611399 1.8031088
-0.046632126 0.2611399 1.8031088
-0.043979056 0.26387435 1.8219895
-0.040837698 0.26387435 1.8219895
-0.037696335 0.26387435 1.8219895
-0.034554973 0.26387435 1.8219895
-0.031413611 0.26387435 1.8219895
-0.028723404 0.26808509 1.8510638
-0.025531914 0.26808509 1.8510638
-0.022340426 0.26808509 1.8510638
-0.019148936 0.26808509 1.8510638
-0.01604278 0.2695187 1.8609625
-0.012834225 0.2695187 1.8609625
-0.0096256686 0.2695187 1.8609625
-0.0064516128 0.27096775 1.8709677
-0.0032258064 0.27096775 1.8709677
0 0.27391306 1.8913044
0.0032608695 0.27391306 1.8913044
0.0065217391 0.27391306 1.8913044
0.0097826086 0.27391306 1.8913044
0.013114754 0.27540985 1.9016393
0.016483517 0.27692309 1.9120879
0.01978022 0.27692309 1.9120879
0.023076924 0.27692309 1.9120879
0.026519338 0.27845305 1.9226519
0.029834254 0.27845305 1.9226519
0.033333335 0.28 1.9333333
0.036666665 0.28 1.9333333
0.040223464 0.28156424 1.9441341
0.043575417 0.28156424 1.9441341
0.047191013 0.28314605 1.9550562
0.050847456 0.28474575 1.9661016
0.054237287 0.28474575 1.9661016
0.057954546 0.28636363 1.9772727
0.061363637 0.28636363 1.9772727
0.065142855 0.28799999 1.9885714
0.068571426 0.28799999 1.9885714
0.072413795 0.28965518 2
0.075862072 0.28965518 2
0.079768784 0.29132947 2.0115607
0.083236992 0.29132947 2.0115607
0.087209299 0.29302326 2.0232558
0.090697676 0.29302326 2.0232558
0.094186045 0.29302326 2.0232558
0.098245613 0.29473683 2.0350878
0.10175438 0.29473683 2.0350878
0.10588235 0.29647058 2.0470588
0.10941176 0.29647058 2.0470588
0.11294118 0.29647058 2.0470588
-0.19534884 0.29651162 2.0232558
-0.19186047 0.29651162 2.0232558
-0.18837209 0.29651162 2.0232558
-0.18275861 0.29310346 2
-0.17931035 0.29310346 2
-0.17586207 0.29310346 2
-0.16853933 0.28651685 1.9550562
-0.16516854 0.28651685 1.9550562
-0.15737705 0.27868852 1.9016393
-0.15409836 0.27868852 1.9016393
-0.15000001 0.27717391 1.8913044
-0.14673913 0.27717391 1.8913044
-0.14042553 0.27127659 1.8510638
-0.13723405 0.27127659 1.8510638
-0.13263159 0.26842105 1.831579
-0.128125 0.265625 1.8125
-0.12435233 0.2642487 1.8031088
-0.12 0.26153848 1.7846154
-0.11692308 0.26153848 1.7846154
-0.11384615 0.26153848 1.7846154
-0.10746269 0.25373134 1.7313433
-0.10447761 0.25373134 1.7313433
-0.1009901 0.25247526 1.7227722
-0.098999999 0.255 1.74
-0.096000001 0.255 1.74
-0.093000002 0.255 1.74
-0.090452261 0.25628141 1.7487438
-0.087437183 0.25628141 1.7487438
-0.084848486 0.25757575 1.7575758
-0.081407033 0.25628141 1.7487438
-0.079187818 0.25888324 1.7664975
-0.076142132 0.25888324 1.7664975
-0.073469386 0.26020408 1.7755102
-0.070408165 0.26020408 1.7755102
-0.067346938 0.26020408 1.7755102
-0.064948454 0.26288658 1.7938144
-0.06185567 0.26288658 1.7938144
-0.058762886 0.26288658 1.7938144
-0.055670105 0.26288658 1.7938144
-0.05284974 0.2642487 1.8031088
-0.049740933 0.2642487 1.8031088
-0.047120418 0.2670157 1.8219895
-0.043979056 0.2670157 1.8219895
-0.040837698 0.2670157 1.8219895
-0.037696335 0.2670157 1.8219895
-0.034554973 0.2670157 1.8219895
-0.031914894 0.27127659 1.8510638
-0.028723404 0.27127659 1.8510638
-0.025531914 0.27127659 1.8510638
-0.022340426 0.27127659 1.8510638
-0.019251337 0.27272728 1.8609625
-0.01604278 0.27272728 1.8609625
-0.012903226 0.27419356 1.8709677
-0.0096774194 0.27419356 1.8709677
-0.0064864866 0.27567568 1.8810811
-0.0032432433 0.27567568 1.8810811
0 0.27717391 1.8913044
0.0032608695 0.27717391 1.8913044
0.0065217391 0.27717391 1.8913044
0.0098360656 0.27868852 1.9016393
0.013114754 0.27868852 1.9016393
0.016483517 0.28021979 1.9120879
0.019889502 0.28176796 1.9226519
0.02320442 0.28176796 1.9226519
0.026666667 0.28333333 1.9333333
0.029999999 0.28333333 1.9333333
0.033333335 0.28333333 1.9333333
0.036871508 0.28491619 1.9441341
0.040223464 0.28491619 1.9441341
0.043575417 0.28491619 1.9441341
0.047457628 0.28813559 1.9661016
0.050847456 0.28813559 1.9661016
0.054545455 0.28977272 1.9772727
0.057954546 0.28977272 1.9772727
0.061363637 0.28977272 1.9772727
0.065142855 0.29142857 1.9885714
0.068571426 0.29142857 1.9885714
0.072413795 0.29310346 2
0.075862072 0.29310346 2
0.079768784 0.29479769 2.0115607
0.08372093 0.29651162 2.0232558
0.087209299 0.29651162 2.0232558
0.091228068 0.29824561 2.0350878
0.094736844 0.29824561 2.0350878
0.098245613 0.29824561 2.0350878
0.10175438 0.29824561 2.0350878
0.10588235 0.30000001 2.0470588
0.10941176 0.30000001 2.0470588
0.11294118 0.30000001 2.0470588
-0.19534884 0.30000001 2.0232558
-0.19186047 0.30000001 2.0232558
-0.18837209 0.30000001 2.0232558
-0.18275861 0.29655173 2
-0.17931035 0.29655173 2
-0.17586207 0.29655173 2
-0.16949153 0.29152542 1.9661016
-0.16610169 0.29152542 1.9661016
-0.16271186 0.29152542 1.9661016
-0.15494506 0.2835165 1.9120879
-0.15164836 0.2835165 1.9120879
-0.14673913 0.28043479 1.8913044
-0.1427027 0.27891892 1.8810811
-0.13723405 0.27446809 1.8510638
-0.13404255 0.27446809 1.8510638
-0.13085106 0.27446809 1.8510638
-0.125 0.26875001 1.8125
-0.121875 0.26875001 1.8125
-0.11752577 0.26597938 1.7938144
-0.11443299 0.26597938 1.7938144
-0.10746269 0.25671643 1.7313433
-0.10447761 0.25671643 1.7313433
-0.102 0.25799999 1.74
-0.098999999 0.25799999 1.74
-0.096000001 0.25799999 1.74
-0.093000002 0.25799999 1.74
-0.090452261 0.25929648 1.7487438
-0.087878786 0.26060605 1.7575758
-0.084848486 0.26060605 1.7575758
-0.082233503 0.26192895 1.7664975
-0.079187818 0.26192895 1.7664975
-0.076530613 0.26326531 1.7755102
-0.073469386 0.26326531 1.7755102
-0.070408165 0.26326531 1.7755102
-0.068041235 0.26597938 1.7938144
-0.064948454 0.26597938 1.7938144
