# .PCD v0.7 - Point Cloud Data file format
VERSION 0.7
FIELDS x y z
SIZE 4 4 4
TYPE F F F
COUNT 1 1 1
WIDTH 1498
HEIGHT 1
VIEWPOINT 0 0 0 1 0 0 0
POINTS 1498
DATA ascii
0.024793388 -0.13884297 0.99173552
0.029999999 -0.14 1
0.034710743 -0.13884297 0.99173552
0.039669421 -0.13884297 0.99173552
0.044628099 -0.13884297 0.99173552
0.049586777 -0.13884297 0.99173552
0.054545455 -0.13884297 0.99173552
0.059504133 -0.13884297 0.99173552
0.064462811 -0.13884297 0.99173552
0.069421485 -0.13884297 0.99173552
0.074380167 -0.13884297 0.99173552
0.079338841 -0.13884297 0.99173552
0.084297523 -0.13884297 0.99173552
0.089256197 -0.13884297 0.99173552
0.094214879 -0.13884297 0.99173552
0.099173553 -0.13884297 0.99173552
0.10413224 -0.13884297 0.99173552
0.10909091 -0.13884297 0.99173552
0.115 -0.14 1
0.12 -0.14 1
0.125 -0.14 1
0.13 -0.14 1
0.13500001 -0.14 1
0.14 -0.14 1
0.14621849 -0.14117648 1.0084034
0.15126051 -0.14117648 1.0084034
0.15630253 -0.14117648 1.0084034
0.16271186 -0.14237288 1.0169492
0.16779661 -0.14237288 1.0169492
0.17288135 -0.14237288 1.0169492
0.17948718 -0.14358975 1.0256411
0.18620689 -0.14482759 1.0344827
0.19137931 -0.14482759 1.0344827
0.19826087 -0.14608696 1.0434783
0.20526315 -0.14736842 1.0526316
0.21052632 -0.14736842 1.0526316
0.21769911 -0.14867257 1.0619469
0.22702703 -0.15135135 1.081081
0.23669724 -0.15412845 1.1009175
0.24220183 -0.15412845 1.1009175
0.24770643 -0.15412845 1.1009175
0.25794393 -0.15700935 1.1214954
0.26355141 -0.15700935 1.1214954
0.26915887 -0.15700935 1.1214954
0.28 -0.16 1.1428572
0.2857143 -0.16 1.1428572
0.29142857 -0.16 1.1428572
0.29714286 -0.16 1.1428572
-0.43170732 -0.19756098 1.4634147
-0.42439026 -0.19756098 1.4634147
-0.41707316 -0.19756098 1.4634147
-0.4148148 -0.2 1.4814814
-0.4074074 -0.2 1.4814814
-0.40000001 -0.2 1.4814814
-0.39750001 -0.2025 1.5
-0.38999999 -0.2025 1.5
-0.38249999 -0.2025 1.5
-0.375 -0.2025 1.5
-0.37692308 -0.20769231 1.5384616
-0.36923078 -0.20769231 1.5384616
-0.36153847 -0.20769231 1.5384616
-0.35384616 -0.20769231 1.5384616
-0.34615386 -0.20769231 1.5384616
-0.33846155 -0.20769231 1.5384616
-0.33076924 -0.20769231 1.5384616
-0.32307693 -0.20769231 1.5384616
-0.31538463 -0.20769231 1.5384616
-0.26086956 -0.17608696 1.3043479
-0.25434783 -0.17608696 1.3043479
-0.24255319 -0.17234042 1.2765957
-0.23617022 -0.17234042 1.2765957
-0.22499999 -0.16875 1.25
-0.21649484 -0.16701031 1.2371134
-0.21030928 -0.16701031 1.2371134
-0.20204082 -0.16530612 1.2244898
-0.19591837 -0.16530612 1.2244898
-0.18979591 -0.16530612 1.2244898
-0.18367347 -0.16530612 1.2244898
-0.17575757 -0.16363636 1.2121212
-0.16969697 -0.16363636 1.2121212
-0.162 -0.162 1.2
-0.156 -0.162 1.2
-0.15000001 -0.162 1.2
-0.14399999 -0.162 1.2
-0.1221239 -0.14336284 1.0619469
-0.11681416 -0.14336284 1.0619469
-0.11150443 -0.14336284 1.0619469
-0.10344828 -0.13965517 1.0344827
-0.098275863 -0.13965517 1.0344827
-0.092307694 -0.13846155 1.0256411
-0.087179489 -0.13846155 1.0256411
-0.082051285 -0.13846155 1.0256411
-0.07692308 -0.13846155 1.0256411
-0.071186438 -0.13728814 1.0169492
-0.066101693 -0.13728814 1.0169492
-0.061016951 -0.13728814 1.0169492
-0.055932205 -0.13728814 1.0169492
-0.050847456 -0.13728814 1.0169492
-0.04576271 -0.13728814 1.0169492
-0.040336136 -0.13613446 1.0084034
-0.035294119 -0.13613446 1.0084034
-0.030252101 -0.13613446 1.0084034
-0.025210084 -0.13613446 1.0084034
-0.020168068 -0.13613446 1.0084034
-0.01512605 -0.13613446 1.0084034
-0.0099999998 -0.13500001 1
-0.0049999999 -0.13500001 1
0 -0.13500001 1
0.0049999999 -0.13500001 1
0.0099999998 -0.13500001 1
0.015 -0.13500001 1
0.01983471 -0.1338843 0.99173552
0.024793388 -0.1338843 0.99173552
0.029752066 -0.1338843 0.99173552
0.034710743 -0.1338843 0.99173552
0.039669421 -0.1338843 0.99173552
0.044628099 -0.1338843 0.99173552
0.049586777 -0.1338843 0.99173552
0.054545455 -0.1338843 0.99173552
0.059504133 -0.1338843 0.99173552
0.064462811 -0.1338843 0.99173552
0.069421485 -0.1338843 0.99173552
0.074380167 -0.1338843 0.99173552
0.079338841 -0.1338843 0.99173552
0.084297523 -0.1338843 0.99173552
0.089256197 -0.1338843 0.99173552
0.094214879 -0.1338843 0.99173552
0.099173553 -0.1338843 0.99173552
0.10413224 -0.1338843 0.99173552
0.10909091 -0.1338843 0.99173552
0.11404958 -0.1338843 0.99173552
0.12 -0.13500001 1
0.125 -0.13500001 1
0.13 -0.13500001 1
0.13500001 -0.13500001 1
0.14 -0.13500001 1
0.14621849 -0.13613446 1.0084034
0.15126051 -0.13613446 1.0084034
0.15630253 -0.13613446 1.0084034
0.16134454 -0.13613446 1.0084034
0.16779661 -0.13728814 1.0169492
0.17288135 -0.13728814 1.0169492
0.17948718 -0.13846155 1.0256411
0.18620689 -0.13965517 1.0344827
0.19137931 -0.13965517 1.0344827
0.19655173 -0.13965517 1.0344827
0.20526315 -0.14210527 1.0526316
0.21052632 -0.14210527 1.0526316
0.21769911 -0.14336284 1.0619469
0.22300886 -0.14336284 1.0619469
0.23669724 -0.14862385 1.1009175
0.24220183 -0.14862385 1.1009175
0.24770643 -0.14862385 1.1009175
0.25794393 -0.15140186 1.1214954
0.26355141 -0.15140186 1.1214954
0.26915887 -0.15140186 1.1214954
0.27476636 -0.15140186 1.1214954
0.2857143 -0.15428571 1.1428572
-0.43170732 -0.1902439 1.4634147
-0.42439026 -0.1902439 1.4634147
-0.41707316 -0.1902439 1.4634147
-0.4148148 -0.19259259 1.4814814
-0.4074074 -0.19259259 1.4814814
-0.40000001 -0.19259259 1.4814814
-0.39750001 -0.19499999 1.5
-0.38999999 -0.19499999 1.5
-0.38249999 -0.19499999 1.5
-0.375 -0.19499999 1.5
-0.37692308 -0.2 1.5384616
-0.36923078 -0.2 1.5384616
-0.36153847 -0.2 1.5384616
-0.35384616 -0.2 1.5384616
-0.34615386 -0.2 1.5384616
-0.33846155 -0.2 1.5384616
-0.33076924 -0.2 1.5384616
-0.32307693 -0.2 1.5384616
-0.26451612 -0.16774194 1.2903225
-0.25806451 -0.16774194 1.2903225
-0.25434783 -0.16956522 1.3043479
-0.2375 -0.16249999 1.25
-0.23125 -0.16249999 1.25
-0.22499999 -0.16249999 1.25
-0.21875 -0.16249999 1.25
-0.20816326 -0.15918367 1.2244898
-0.20204082 -0.15918367 1.2244898
-0.19591837 -0.15918367 1.2244898
-0.18787879 -0.15757576 1.2121212
-0.18181819 -0.15757576 1.2121212
-0.17575757 -0.15757576 1.2121212
-0.16969697 -0.15757576 1.2121212
-0.162 -0.156 1.2
-0.156 -0.156 1.2
-0.15000001 -0.156 1.2
-0.14399999 -0.156 1.2
-0.1221239 -0.1380531 1.0619469
-0.11681416 -0.1380531 1.0619469
-0.11150443 -0.1380531 1.0619469
-0.10344828 -0.13448276 1.0344827
-0.098275863 -0.13448276 1.0344827
-0.093103446 -0.13448276 1.0344827
-0.087179489 -0.13333334 1.0256411
-0.082051285 -0.13333334 1.0256411
-0.076271184 -0.13220339 1.0169492
-0.071186438 -0.13220339 1.0169492
-0.066101693 -0.13220339 1.0169492
-0.061016951 -0.13220339 1.0169492
-0.055932205 -0.13220339 1.0169492
-0.050847456 -0.13220339 1.0169492
-0.045378152 -0.13109244 1.0084034
-0.040336136 -0.13109244 1.0084034
-0.035294119 -0.13109244 1.0084034
-0.030252101 -0.13109244 1.0084034
-0.025210084 -0.13109244 1.0084034
-0.02 -0.13 1
-0.015 -0.13 1
-0.0099999998 -0.13 1
-0.0049999999 -0.13 1
0 -0.13 1
0.0049586776 -0.12892562 0.99173552
0.0099173551 -0.12892562 0.99173552
0.014876033 -0.12892562 0.99173552
0.01983471 -0.12892562 0.99173552
0.024793388 -0.12892562 0.99173552
0.029752066 -0.12892562 0.99173552
0.034710743 -0.12892562 0.99173552
0.039669421 -0.12892562 0.99173552
0.044628099 -0.12892562 0.99173552
0.049586777 -0.12892562 0.99173552
0.054545455 -0.12892562 0.99173552
0.059504133 -0.12892562 0.99173552
0.064462811 -0.12892562 0.99173552
0.069421485 -0.12892562 0.99173552
0.074380167 -0.12892562 0.99173552
0.079338841 -0.12892562 0.99173552
0.084297523 -0.12892562 0.99173552
0.089256197 -0.12892562 0.99173552
0.094214879 -0.12892562 0.99173552
0.099173553 -0.12892562 0.99173552
0.10413224 -0.12892562 0.99173552
0.10909091 -0.12892562 0.99173552
0.11404958 -0.12892562 0.99173552
0.11900827 -0.12892562 0.99173552
0.125 -0.13 1
0.13 -0.13 1
0.13500001 -0.13 1
0.14117648 -0.13109244 1.0084034
0.14621849 -0.13109244 1.0084034
0.15126051 -0.13109244 1.0084034
0.15630253 -0.13109244 1.0084034
0.16271186 -0.13220339 1.0169492
0.16779661 -0.13220339 1.0169492
0.17288135 -0.13220339 1.0169492
0.18103448 -0.13448276 1.0344827
0.18620689 -0.13448276 1.0344827
0.19137931 -0.13448276 1.0344827
0.19655173 -0.13448276 1.0344827
0.20526315 -0.1368421 1.0526316
0.21238938 -0.1380531 1.0619469
0.21769911 -0.1380531 1.0619469
0.22300886 -0.1380531 1.0619469
0.23669724 -0.14311926 1.1009175
0.24220183 -0.14311926 1.1009175
0.25 -0.14444445 1.1111112
0.25794393 -0.14579439 1.1214954
0.26355141 -0.14579439 1.1214954
0.26915887 -0.14579439 1.1214954
-0.43373495 -0.18072289 1.4457831
-0.43170732 -0.18292683 1.4634147
-0.42439026 -0.18292683 1.4634147
-0.41707316 -0.18292683 1.4634147
-0.4148148 -0.18518518 1.4814814
-0.4074074 -0.18518518 1.4814814
-0.40000001 -0.18518518 1.4814814
-0.38780487 -0.18292683 1.4634147
-0.38999999 -0.1875 1.5
-0.38249999 -0.1875 1.5
-0.375 -0.1875 1.5
-0.37692308 -0.1923077 1.5384616
-0.36455697 -0.18987341 1.5189873
-0.35696203 -0.18987341 1.5189873
-0.35384616 -0.1923077 1.5384616
-0.34615386 -0.1923077 1.5384616
-0.33846155 -0.1923077 1.5384616
-0.33076924 -0.1923077 1.5384616
-0.27096775 -0.16129032 1.2903225
-0.26451612 -0.16129032 1.2903225
-0.25806451 -0.16129032 1.2903225
-0.2516129 -0.16129032 1.2903225
-0.2375 -0.15625 1.25
-0.23125 -0.15625 1.25
-0.22499999 -0.15625 1.25
-0.21875 -0.15625 1.25
-0.20816326 -0.15306123 1.2244898
-0.20204082 -0.15306123 1.2244898
-0.19591837 -0.15306123 1.2244898
-0.18787879 -0.15151516 1.2121212
-0.18181819 -0.15151516 1.2121212
-0.17575757 -0.15151516 1.2121212
-0.16969697 -0.15151516 1.2121212
-0.16363636 -0.15151516 1.2121212
-0.156 -0.15000001 1.2
-0.15000001 -0.15000001 1.2
-0.14399999 -0.15000001 1.2
-0.1221239 -0.13274336 1.0619469
-0.11681416 -0.13274336 1.0619469
-0.11052632 -0.13157895 1.0526316
-0.10344828 -0.12931034 1.0344827
-0.098275863 -0.12931034 1.0344827
-0.093103446 -0.12931034 1.0344827
-0.087179489 -0.12820514 1.0256411
-0.082051285 -0.12820514 1.0256411
-0.076271184 -0.12711865 1.0169492
-0.071186438 -0.12711865 1.0169492
-0.066101693 -0.12711865 1.0169492
-0.061016951 -0.12711865 1.0169492
-0.055932205 -0.12711865 1.0169492
-0.050420169 -0.12605043 1.0084034
-0.045378152 -0.12605043 1.0084034
-0.040336136 -0.12605043 1.0084034
-0.035294119 -0.12605043 1.0084034
-0.030252101 -0.12605043 1.0084034
-0.025 -0.125 1
-0.02 -0.125 1
-0.015 -0.125 1
-0.0099999998 -0.125 1
-0.0049999999 -0.125 1
0 -0.125 1
0.0049586776 -0.12396694 0.99173552
0.0099173551 -0.12396694 0.99173552
0.014876033 -0.12396694 0.99173552
0.01983471 -0.12396694 0.99173552
0.024793388 -0.12396694 0.99173552
0.029752066 -0.12396694 0.99173552
0.034710743 -0.12396694 0.99173552
0.039669421 -0.12396694 0.99173552
0.044628099 -0.12396694 0.99173552
0.049586777 -0.12396694 0.99173552
0.054545455 -0.12396694 0.99173552
0.059504133 -0.12396694 0.99173552
0.064462811 -0.12396694 0.99173552
0.069421485 -0.12396694 0.99173552
0.074380167 -0.12396694 0.99173552
0.079338841 -0.12396694 0.99173552
0.084297523 -0.12396694 0.99173552
0.089256197 -0.12396694 0.99173552
0.094214879 -0.12396694 0.99173552
0.099173553 -0.12396694 0.99173552
0.10413224 -0.12396694 0.99173552
0.10909091 -0.12396694 0.99173552
0.11404958 -0.12396694 0.99173552
0.12 -0.125 1
0.125 -0.125 1
0.13 -0.125 1
0.13613446 -0.12605043 1.0084034
0.14117648 -0.12605043 1.0084034
0.14621849 -0.12605043 1.0084034
0.15126051 -0.12605043 1.0084034
0.15762712 -0.12711865 1.0169492
0.16271186 -0.12711865 1.0169492
0.16779661 -0.12711865 1.0169492
0.17288135 -0.12711865 1.0169492
0.18103448 -0.12931034 1.0344827
0.18620689 -0.12931034 1.0344827
0.19304349 -0.13043478 1.0434783
0.19826087 -0.13043478 1.0434783
0.20707965 -0.13274336 1.0619469
0.21238938 -0.13274336 1.0619469
0.21769911 -0.13274336 1.0619469
0.22702703 -0.13513513 1.081081
0.23669724 -0.13761468 1.1009175
0.24220183 -0.13761468 1.1009175
0.25 -0.1388889 1.1111112
0.25555557 -0.1388889 1.1111112
0.26355141 -0.14018692 1.1214954
0.26915887 -0.14018692 1.1214954
-0.44096386 -0.17349398 1.4457831
-0.43373495 -0.17349398 1.4457831
-0.42650601 -0.17349398 1.4457831
-0.4192771 -0.17349398 1.4457831
-0.41707316 -0.17560975 1.4634147
-0.4148148 -0.17777778 1.4814814
-0.4074074 -0.17777778 1.4814814
-0.39512196 -0.17560975 1.4634147
-0.38780487 -0.17560975 1.4634147
-0.38518518 -0.17777778 1.4814814
-0.37777779 -0.17777778 1.4814814
-0.37037036 -0.17777778 1.4814814
-0.36750001 -0.18000001 1.5
-0.36455697 -0.18227848 1.5189873
-0.35696203 -0.18227848 1.5189873
-0.35384616 -0.18461539 1.5384616
-0.34615386 -0.18461539 1.5384616
-0.33846155 -0.18461539 1.5384616
-0.33076924 -0.18461539 1.5384616
-0.27096775 -0.15483871 1.2903225
-0.26451612 -0.15483871 1.2903225
-0.25806451 -0.15483871 1.2903225
-0.2516129 -0.15483871 1.2903225
-0.23999999 -0.15157895 1.2631578
-0.23125 -0.15000001 1.25
-0.22268042 -0.14845361 1.2371134
-0.21649484 -0.14845361 1.2371134
-0.20816326 -0.14693877 1.2244898
-0.20204082 -0.14693877 1.2244898
-0.19591837 -0.14693877 1.2244898
-0.18787879 -0.14545454 1.2121212
-0.18181819 -0.14545454 1.2121212
-0.17575757 -0.14545454 1.2121212
-0.16969697 -0.14545454 1.2121212
-0.162 -0.14399999 1.2
-0.156 -0.14399999 1.2
-0.15000001 -0.14399999 1.2
-0.14399999 -0.14399999 1.2
-0.138 -0.14399999 1.2
-0.11578947 -0.12631579 1.0526316
-0.11052632 -0.12631579 1.0526316
-0.10526316 -0.12631579 1.0526316
-0.098275863 -0.12413793 1.0344827
-0.092307694 -0.12307692 1.0256411
-0.087179489 -0.12307692 1.0256411
-0.082051285 -0.12307692 1.0256411
-0.07692308 -0.12307692 1.0256411
-0.071186438 -0.1220339 1.0169492
-0.066101693 -0.1220339 1.0169492
-0.061016951 -0.1220339 1.0169492
-0.055932205 -0.1220339 1.0169492
-0.050420169 -0.1210084 1.0084034
-0.045378152 -0.1210084 1.0084034
-0.040336136 -0.1210084 1.0084034
-0.035 -0.12 1
-0.029999999 -0.12 1
-0.025 -0.12 1
-0.02 -0.12 1
-0.015 -0.12 1
-0.0099173551 -0.11900827 0.99173552
-0.0049586776 -0.11900827 0.99173552
0 -0.11900827 0.99173552
0.0049586776 -0.11900827 0.99173552
0.0099173551 -0.11900827 0.99173552
0.014876033 -0.11900827 0.99173552
0.01983471 -0.11900827 0.99173552
0.024793388 -0.11900827 0.99173552
0.029752066 -0.11900827 0.99173552
0.034710743 -0.11900827 0.99173552
0.039669421 -0.11900827 0.99173552
0.044628099 -0.11900827 0.99173552
0.049586777 -0.11900827 0.99173552
0.054545455 -0.11900827 0.99173552
0.059504133 -0.11900827 0.99173552
0.064462811 -0.11900827 0.99173552
0.069421485 -0.11900827 0.99173552
0.074380167 -0.11900827 0.99173552
0.079338841 -0.11900827 0.99173552
0.084297523 -0.11900827 0.99173552
0.089256197 -0.11900827 0.99173552
0.094214879 -0.11900827 0.99173552
0.099173553 -0.11900827 0.99173552
0.10413224 -0.11900827 0.99173552
0.10909091 -0.11900827 0.99173552
0.11404958 -0.11900827 0.99173552
0.12 -0.12 1
0.125 -0.12 1
0.13 -0.12 1
0.13613446 -0.1210084 1.0084034
0.14117648 -0.1210084 1.0084034
0.14621849 -0.1210084 1.0084034
0.15126051 -0.1210084 1.0084034
0.15762712 -0.1220339 1.0169492
0.16271186 -0.1220339 1.0169492
0.16779661 -0.1220339 1.0169492
0.17435898 -0.12307692 1.0256411
0.17948718 -0.12307692 1.0256411
0.18620689 -0.12413793 1.0344827
0.19304349 -0.12521739 1.0434783
0.19826087 -0.12521739 1.0434783
0.20347826 -0.12521739 1.0434783
0.21238938 -0.12743363 1.0619469
0.22162162 -0.12972973 1.081081
0.22702703 -0.12972973 1.081081
0.23454545 -0.13090909 1.0909091
0.24220183 -0.13211009 1.1009175
0.25233644 -0.13457943 1.1214954
0.25794393 -0.13457943 1.1214954
0.26355141 -0.13457943 1.1214954
0.26915887 -0.13457943 1.1214954
-0.45542169 -0.16626506 1.4457831
-0.44819278 -0.16626506 1.4457831
-0.44096386 -0.16626506 1.4457831
-0.43373495 -0.16626506 1.4457831
-0.42650601 -0.16626506 1.4457831
-0.4192771 -0.16626506 1.4457831
-0.41204819 -0.16626506 1.4457831
-0.4148148 -0.17037037 1.4814814
-0.40243903 -0.16829269 1.4634147
-0.39512196 -0.16829269 1.4634147
-0.38780487 -0.16829269 1.4634147
-0.38518518 -0.17037037 1.4814814
-0.37777779 -0.17037037 1.4814814
-0.37037036 -0.17037037 1.4814814
-0.36750001 -0.1725 1.5
-0.36455697 -0.17468354 1.5189873
-0.35696203 -0.17468354 1.5189873
-0.35384616 -0.17692308 1.5384616
-0.34615386 -0.17692308 1.5384616
-0.33846155 -0.17692308 1.5384616
-0.33076924 -0.17692308 1.5384616
-0.27096775 -0.14838709 1.2903225
-0.26451612 -0.14838709 1.2903225
-0.25806451 -0.14838709 1.2903225
-0.2516129 -0.14838709 1.2903225
-0.23999999 -0.14526317 1.2631578
-0.23368421 -0.14526317 1.2631578
-0.22268042 -0.14226805 1.2371134
-0.21649484 -0.14226805 1.2371134
-0.20816326 -0.14081633 1.2244898
-0.20204082 -0.14081633 1.2244898
-0.19591837 -0.14081633 1.2244898
-0.18979591 -0.14081633 1.2244898
-0.18181819 -0.13939394 1.2121212
-0.17575757 -0.13939394 1.2121212
-0.168 -0.138 1.2
-0.162 -0.138 1.2
-0.156 -0.138 1.2
-0.15000001 -0.138 1.2
-0.14399999 -0.138 1.2
-0.138 -0.138 1.2
-0.11578947 -0.12105263 1.0526316
-0.11052632 -0.12105263 1.0526316
-0.10344828 -0.11896551 1.0344827
-0.098275863 -0.11896551 1.0344827
-0.093103446 -0.11896551 1.0344827
-0.087179489 -0.11794872 1.0256411
-0.082051285 -0.11794872 1.0256411
-0.07692308 -0.11794872 1.0256411
-0.071186438 -0.11694916 1.0169492
-0.066101693 -0.11694916 1.0169492
-0.061016951 -0.11694916 1.0169492
-0.055462185 -0.11596639 1.0084034
-0.050420169 -0.11596639 1.0084034
-0.045378152 -0.11596639 1.0084034
-0.039999999 -0.115 1
-0.035 -0.115 1
-0.029999999 -0.115 1
-0.025 -0.115 1
-0.02 -0.115 1
-0.014876033 -0.11404958 0.99173552
-0.0099173551 -0.11404958 0.99173552
-0.0049586776 -0.11404958 0.99173552
0 -0.11404958 0.99173552
0.0049586776 -0.11404958 0.99173552
0.0099173551 -0.11404958 0.99173552
0.014876033 -0.11404958 0.99173552
0.01983471 -0.11404958 0.99173552
0.024793388 -0.11404958 0.99173552
0.029752066 -0.11404958 0.99173552
0.034710743 -0.11404958 0.99173552
0.039669421 -0.11404958 0.99173552
0.044628099 -0.11404958 0.99173552
0.049586777 -0.11404958 0.99173552
0.054545455 -0.11404958 0.99173552
0.059504133 -0.11404958 0.99173552
0.064462811 -0.11404958 0.99173552
0.069421485 -0.11404958 0.99173552
0.074380167 -0.11404958 0.99173552
0.079338841 -0.11404958 0.99173552
0.084297523 -0.11404958 0.99173552
0.089256197 -0.11404958 0.99173552
0.094214879 -0.11404958 0.99173552
0.099173553 -0.11404958 0.99173552
0.10413224 -0.11404958 0.99173552
0.10909091 -0.11404958 0.99173552
0.11404958 -0.11404958 0.99173552
0.11900827 -0.11404958 0.99173552
0.125 -0.115 1
0.13 -0.115 1
0.13613446 -0.11596639 1.0084034
0.14117648 -0.11596639 1.0084034
0.14621849 -0.11596639 1.0084034
0.15126051 -0.11596639 1.0084034
0.15630253 -0.11596639 1.0084034
0.16271186 -0.11694916 1.0169492
0.16923077 -0.11794872 1.0256411
0.17435898 -0.11794872 1.0256411
0.17948718 -0.11794872 1.0256411
0.18461539 -0.11794872 1.0256411
0.19304349 -0.12 1.0434783
0.19826087 -0.12 1.0434783
0.20526315 -0.12105263 1.0526316
0.21052632 -0.12105263 1.0526316
0.22162162 -0.12432432 1.081081
0.22702703 -0.12432432 1.081081
0.23454545 -0.12545455 1.0909091
0.23999999 -0.12545455 1.0909091
0.25233644 -0.12897196 1.1214954
0.25794393 -0.12897196 1.1214954
0.26355141 -0.12897196 1.1214954
-0.45542169 -0.15903614 1.4457831
-0.44819278 -0.15903614 1.4457831
-0.44096386 -0.15903614 1.4457831
-0.43373495 -0.15903614 1.4457831
-0.42650601 -0.15903614 1.4457831
-0.4192771 -0.15903614 1.4457831
-0.41204819 -0.15903614 1.4457831
-0.40481928 -0.15903614 1.4457831
-0.40243903 -0.16097561 1.4634147
-0.39512196 -0.16097561 1.4634147
-0.38780487 -0.16097561 1.4634147
-0.38518518 -0.16296296 1.4814814
-0.37777779 -0.16296296 1.4814814
-0.37037036 -0.16296296 1.4814814
-0.36750001 -0.16500001 1.5
-0.36000001 -0.16500001 1.5
-0.35249999 -0.16500001 1.5
-0.34936708 -0.16708861 1.5189873
-0.34615386 -0.16923077 1.5384616
-0.33846155 -0.16923077 1.5384616
-0.33076924 -0.16923077 1.5384616
-0.32307693 -0.16923077 1.5384616
-0.26451612 -0.14193548 1.2903225
-0.25806451 -0.14193548 1.2903225
-0.24893618 -0.14042553 1.2765957
-0.2375 -0.1375 1.25
-0.23125 -0.1375 1.25
-0.22499999 -0.1375 1.25
-0.21428572 -0.13469388 1.2244898
-0.20816326 -0.13469388 1.2244898
-0.20204082 -0.13469388 1.2244898
-0.19591837 -0.13469388 1.2244898
-0.18979591 -0.13469388 1.2244898
-0.18181819 -0.13333334 1.2121212
-0.17575757 -0.13333334 1.2121212
-0.168 -0.132 1.2
-0.162 -0.132 1.2
-0.156 -0.132 1.2
-0.15000001 -0.132 1.2
-0.14399999 -0.132 1.2
-0.138 -0.132 1.2
-0.132 -0.132 1.2
-0.11052632 -0.11578947 1.0526316
-0.10344828 -0.1137931 1.0344827
-0.098275863 -0.1137931 1.0344827
-0.093103446 -0.1137931 1.0344827
-0.087931037 -0.1137931 1.0344827
-0.082051285 -0.11282051 1.0256411
-0.07692308 -0.11282051 1.0256411
-0.071186438 -0.11186441 1.0169492
-0.066101693 -0.11186441 1.0169492
-0.061016951 -0.11186441 1.0169492
-0.055462185 -0.11092437 1.0084034
-0.050420169 -0.11092437 1.0084034
-0.045378152 -0.11092437 1.0084034
-0.039999999 -0.11 1
-0.035 -0.11 1
-0.029999999 -0.11 1
-0.025 -0.11 1
-0.02 -0.11 1
-0.014876033 -0.10909091 0.99173552
-0.0099173551 -0.10909091 0.99173552
-0.0049586776 -0.10909091 0.99173552
0 -0.10909091 0.99173552
0.0049586776 -0.10909091 0.99173552
0.0099173551 -0.10909091 0.99173552
0.014876033 -0.10909091 0.99173552
0.01983471 -0.10909091 0.99173552
0.024793388 -0.10909091 0.99173552
0.029752066 -0.10909091 0.99173552
0.034710743 -0.10909091 0.99173552
0.039669421 -0.10909091 0.99173552
0.044628099 -0.10909091 0.99173552
0.049586777 -0.10909091 0.99173552
0.054545455 -0.10909091 0.99173552
0.059504133 -0.10909091 0.99173552
0.064462811 -0.10909091 0.99173552
0.069421485 -0.10909091 0.99173552
0.074380167 -0.10909091 0.99173552
0.079338841 -0.10909091 0.99173552
0.084297523 -0.10909091 0.99173552
0.089256197 -0.10909091 0.99173552
0.094214879 -0.10909091 0.99173552
0.099173553 -0.10909091 0.99173552
0.10413224 -0.10909091 0.99173552
0.10909091 -0.10909091 0.99173552
0.115 -0.11 1
0.12 -0.11 1
0.125 -0.11 1
0.13 -0.11 1
0.13613446 -0.11092437 1.0084034
0.14117648 -0.11092437 1.0084034
0.14621849 -0.11092437 1.0084034
0.15254237 -0.11186441 1.0169492
0.15762712 -0.11186441 1.0169492
0.16271186 -0.11186441 1.0169492
0.16779661 -0.11186441 1.0169492
0.17586207 -0.1137931 1.0344827
0.18103448 -0.1137931 1.0344827
0.18620689 -0.1137931 1.0344827
0.19473684 -0.11578947 1.0526316
0.2 -0.11578947 1.0526316
0.20526315 -0.11578947 1.0526316
0.21052632 -0.11578947 1.0526316
0.22162162 -0.11891892 1.081081
0.22702703 -0.11891892 1.081081
0.23243243 -0.11891892 1.081081
0.24444444 -0.12222222 1.1111112
0.25 -0.12222222 1.1111112
0.25794393 -0.12336449 1.1214954
0.26355141 -0.12336449 1.1214954
-0.4626506 -0.15180723 1.4457831
-0.45542169 -0.15180723 1.4457831
-0.44819278 -0.15180723 1.4457831
-0.44096386 -0.15180723 1.4457831
-0.43373495 -0.15180723 1.4457831
-0.42650601 -0.15180723 1.4457831
-0.4192771 -0.15180723 1.4457831
-0.41204819 -0.15180723 1.4457831
-0.40481928 -0.15180723 1.4457831
-0.39759037 -0.15180723 1.4457831
-0.39036146 -0.15180723 1.4457831
-0.38780487 -0.15365854 1.4634147
-0.3804878 -0.15365854 1.4634147
-0.37317073 -0.15365854 1.4634147
-0.37037036 -0.15555556 1.4814814
-0.36296296 -0.15555556 1.4814814
-0.36000001 -0.1575 1.5
-0.35249999 -0.1575 1.5
-0.34936708 -0.15949367 1.5189873
-0.34615386 -0.16153847 1.5384616
-0.33846155 -0.16153847 1.5384616
-0.33076924 -0.16153847 1.5384616
-0.32307693 -0.16153847 1.5384616
-0.26451612 -0.13548388 1.2903225
-0.25806451 -0.13548388 1.2903225
-0.24893618 -0.13404255 1.2765957
-0.2375 -0.13124999 1.25
-0.23125 -0.13124999 1.25
-0.22499999 -0.13124999 1.25
-0.21428572 -0.12857144 1.2244898
-0.20816326 -0.12857144 1.2244898
-0.20204082 -0.12857144 1.2244898
-0.19591837 -0.12857144 1.2244898
-0.18979591 -0.12857144 1.2244898
-0.18181819 -0.12727273 1.2121212
-0.17575757 -0.12727273 1.2121212
-0.16969697 -0.12727273 1.2121212
-0.162 -0.126 1.2
-0.156 -0.126 1.2
-0.15000001 -0.126 1.2
-0.14399999 -0.126 1.2
-0.138 -0.126 1.2
-0.12222222 -0.11666667 1.1111112
-0.11052632 -0.11052632 1.0526316
-0.10526316 -0.11052632 1.0526316
-0.1 -0.11052632 1.0526316
-0.093103446 -0.10862069 1.0344827
-0.087931037 -0.10862069 1.0344827
-0.082051285 -0.10769231 1.0256411
-0.07692308 -0.10769231 1.0256411
-0.071186438 -0.10677966 1.0169492
-0.066101693 -0.10677966 1.0169492
-0.060504202 -0.10588235 1.0084034
-0.055462185 -0.10588235 1.0084034
-0.050000001 -0.105 1
-0.045000002 -0.105 1
-0.039999999 -0.105 1
-0.035 -0.105 1
-0.029752066 -0.10413224 0.99173552
-0.025 -0.105 1
-0.02 -0.105 1
-0.014876033 -0.10413224 0.99173552
-0.0099173551 -0.10413224 0.99173552
-0.0049586776 -0.10413224 0.99173552
0 -0.10413224 0.99173552
0.0049586776 -0.10413224 0.99173552
0.0099173551 -0.10413224 0.99173552
0.014876033 -0.10413224 0.99173552
0.01983471 -0.10413224 0.99173552
0.024793388 -0.10413224 0.99173552
0.029752066 -0.10413224 0.99173552
0.034710743 -0.10413224 0.99173552
0.039669421 -0.10413224 0.99173552
0.044628099 -0.10413224 0.99173552
0.049586777 -0.10413224 0.99173552
0.054545455 -0.10413224 0.99173552
0.059504133 -0.10413224 0.99173552
0.064462811 -0.10413224 0.99173552
0.069421485 -0.10413224 0.99173552
0.074380167 -0.10413224 0.99173552
0.079338841 -0.10413224 0.99173552
0.084297523 -0.10413224 0.99173552
0.089256197 -0.10413224 0.99173552
0.094214879 -0.10413224 0.99173552
0.099173553 -0.10413224 0.99173552
0.10413224 -0.10413224 0.99173552
0.11 -0.105 1
0.115 -0.105 1
0.12 -0.105 1
0.125 -0.105 1
0.13 -0.105 1
0.13613446 -0.10588235 1.0084034
0.14117648 -0.10588235 1.0084034
0.14621849 -0.10588235 1.0084034
0.15254237 -0.10677966 1.0169492
0.15762712 -0.10677966 1.0169492
0.16271186 -0.10677966 1.0169492
0.16779661 -0.10677966 1.0169492
0.17586207 -0.10862069 1.0344827
0.18103448 -0.10862069 1.0344827
0.18782608 -0.10956522 1.0434783
0.19304349 -0.10956522 1.0434783
0.2 -0.11052632 1.0526316
0.20526315 -0.11052632 1.0526316
0.21428572 -0.1125 1.0714285
0.22162162 -0.11351351 1.081081
0.22702703 -0.11351351 1.081081
0.23669724 -0.11559633 1.1009175
0.24444444 -0.11666667 1.1111112
0.25 -0.11666667 1.1111112
0.25555557 -0.11666667 1.1111112
0.26111111 -0.11666667 1.1111112
-0.4626506 -0.14457831 1.4457831
-0.45542169 -0.14457831 1.4457831
-0.44819278 -0.14457831 1.4457831
-0.44096386 -0.14457831 1.4457831
-0.43373495 -0.14457831 1.4457831
-0.42650601 -0.14457831 1.4457831
-0.4192771 -0.14457831 1.4457831
-0.41204819 -0.14457831 1.4457831
-0.40481928 -0.14457831 1.4457831
-0.39759037 -0.14457831 1.4457831
-0.39036146 -0.14457831 1.4457831
-0.38313252 -0.14457831 1.4457831
-0.3804878 -0.14634146 1.4634147
-0.37317073 -0.14634146 1.4634147
-0.36585367 -0.14634146 1.4634147
-0.36296296 -0.14814815 1.4814814
-0.35555556 -0.14814815 1.4814814
-0.35696203 -0.15189873 1.5189873
-0.34936708 -0.15189873 1.5189873
-0.34177214 -0.15189873 1.5189873
-0.33846155 -0.15384616 1.5384616
-0.33076924 -0.15384616 1.5384616
-0.32307693 -0.15384616 1.5384616
-0.26451612 -0.12903225 1.2903225
-0.25806451 -0.12903225 1.2903225
-0.24893618 -0.12765957 1.2765957
-0.23999999 -0.12631579 1.2631578
-0.23125 -0.125 1.25
-0.22499999 -0.125 1.25
-0.21875 -0.125 1.25
-0.20816326 -0.12244898 1.2244898
-0.20204082 -0.12244898 1.2244898
-0.19591837 -0.12244898 1.2244898
-0.18787879 -0.12121212 1.2121212
-0.18181819 -0.12121212 1.2121212
-0.17575757 -0.12121212 1.2121212
-0.168 -0.12 1.2
-0.162 -0.12 1.2
-0.156 -0.12 1.2
-0.15000001 -0.12 1.2
-0.14399999 -0.12 1.2
-0.12777779 -0.11111111 1.1111112
-0.12222222 -0.11111111 1.1111112
-0.11052632 -0.10526316 1.0526316
-0.10526316 -0.10526316 1.0526316
-0.1 -0.10526316 1.0526316
-0.094736844 -0.10526316 1.0526316
-0.087931037 -0.10344828 1.0344827
-0.082051285 -0.1025641 1.0256411
-0.07692308 -0.1025641 1.0256411
-0.071794875 -0.1025641 1.0256411
-0.065546222 -0.10084034 1.0084034
-0.060504202 -0.10084034 1.0084034
-0.055462185 -0.10084034 1.0084034
-0.050000001 -0.1 1
-0.045000002 -0.1 1
-0.039999999 -0.1 1
-0.034710743 -0.099173553 0.99173552
-0.029752066 -0.099173553 0.99173552
-0.024793388 -0.099173553 0.99173552
-0.01983471 -0.099173553 0.99173552
-0.014876033 -0.099173553 0.99173552
-0.0099173551 -0.099173553 0.99173552
-0.0049586776 -0.099173553 0.99173552
0 -0.099173553 0.99173552
0.0049586776 -0.099173553 0.99173552
0.0099173551 -0.099173553 0.99173552
0.014876033 -0.099173553 0.99173552
0.01983471 -0.099173553 0.99173552
0.024793388 -0.099173553 0.99173552
0.029752066 -0.099173553 0.99173552
0.034710743 -0.099173553 0.99173552
0.039669421 -0.099173553 0.99173552
0.044628099 -0.099173553 0.99173552
0.049586777 -0.099173553 0.99173552
0.054545455 -0.099173553 0.99173552
0.059504133 -0.099173553 0.99173552
0.064462811 -0.099173553 0.99173552
0.069421485 -0.099173553 0.99173552
0.074380167 -0.099173553 0.99173552
0.079338841 -0.099173553 0.99173552
0.084297523 -0.099173553 0.99173552
0.089256197 -0.099173553 0.99173552
0.094214879 -0.099173553 0.99173552
0.099173553 -0.099173553 0.99173552
0.10413224 -0.099173553 0.99173552
0.11 -0.1 1
0.115 -0.1 1
0.12 -0.1 1
0.125 -0.1 1
0.13 -0.1 1
0.13613446 -0.10084034 1.0084034
0.14117648 -0.10084034 1.0084034
0.14621849 -0.10084034 1.0084034
0.15254237 -0.10169491 1.0169492
0.15762712 -0.10169491 1.0169492
0.16410257 -0.1025641 1.0256411
0.16923077 -0.1025641 1.0256411
0.17586207 -0.10344828 1.0344827
0.18260869 -0.10434783 1.0434783
0.18782608 -0.10434783 1.0434783
0.19304349 -0.10434783 1.0434783
0.19826087 -0.10434783 1.0434783
0.20707965 -0.10619469 1.0619469
0.21428572 -0.10714286 1.0714285
0.22162162 -0.10810811 1.081081
0.22909091 -0.10909091 1.0909091
0.23669724 -0.11009175 1.1009175
0.24444444 -0.11111111 1.1111112
0.25 -0.11111111 1.1111112
0.25555557 -0.11111111 1.1111112
0.27115384 -0.11538462 1.1538461
0.27692309 -0.11538462 1.1538461
0.28269231 -0.11538462 1.1538461
-0.4626506 -0.1373494 1.4457831
-0.45542169 -0.1373494 1.4457831
-0.44819278 -0.1373494 1.4457831
-0.44096386 -0.1373494 1.4457831
-0.43373495 -0.1373494 1.4457831
-0.42650601 -0.1373494 1.4457831
-0.4192771 -0.1373494 1.4457831
-0.41204819 -0.1373494 1.4457831
-0.40481928 -0.1373494 1.4457831
-0.39759037 -0.1373494 1.4457831
-0.39036146 -0.1373494 1.4457831
-0.38313252 -0.1373494 1.4457831
-0.3804878 -0.13902439 1.4634147
-0.37317073 -0.13902439 1.4634147
-0.36585367 -0.13902439 1.4634147
-0.36296296 -0.14074074 1.4814814
-0.35555556 -0.14074074 1.4814814
-0.35696203 -0.1443038 1.5189873
-0.34936708 -0.1443038 1.5189873
-0.33750001 -0.1425 1.5
-0.33417723 -0.1443038 1.5189873
-0.33076924 -0.14615385 1.5384616
-0.32307693 -0.14615385 1.5384616
-0.26451612 -0.12258065 1.2903225
-0.25806451 -0.12258065 1.2903225
-0.24893618 -0.12127659 1.2765957
-0.23999999 -0.12 1.2631578
-0.23125 -0.11875 1.25
-0.22499999 -0.11875 1.25
-0.21875 -0.11875 1.25
-0.20816326 -0.11632653 1.2244898
-0.20204082 -0.11632653 1.2244898
-0.19591837 -0.11632653 1.2244898
-0.18787879 -0.11515152 1.2121212
-0.18181819 -0.11515152 1.2121212
-0.17575757 -0.11515152 1.2121212
-0.168 -0.114 1.2
-0.162 -0.114 1.2
-0.156 -0.114 1.2
-0.15000001 -0.114 1.2
-0.13333334 -0.10555556 1.1111112
-0.12777779 -0.10555556 1.1111112
-0.12222222 -0.10555556 1.1111112
-0.11351351 -0.1027027 1.081081
-0.10526316 -0.1 1.0526316
-0.1 -0.1 1.0526316
-0.093913041 -0.099130437 1.0434783
-0.088695653 -0.099130437 1.0434783
-0.08275862 -0.098275863 1.0344827
-0.07692308 -0.097435899 1.0256411
-0.071794875 -0.097435899 1.0256411
-0.065546222 -0.095798321 1.0084034
-0.060504202 -0.095798321 1.0084034
-0.055 -0.094999999 1
-0.050000001 -0.094999999 1
-0.045000002 -0.094999999 1
-0.039999999 -0.094999999 1
-0.035 -0.094999999 1
-0.029752066 -0.094214879 0.99173552
-0.024793388 -0.094214879 0.99173552
-0.01983471 -0.094214879 0.99173552
-0.014876033 -0.094214879 0.99173552
-0.0099173551 -0.094214879 0.99173552
-0.0049586776 -0.094214879 0.99173552
0 -0.094214879 0.99173552
0.0049586776 -0.094214879 0.99173552
0.0099173551 -0.094214879 0.99173552
0.014876033 -0.094214879 0.99173552
0.01983471 -0.094214879 0.99173552
0.024793388 -0.094214879 0.99173552
0.029752066 -0.094214879 0.99173552
0.034710743 -0.094214879 0.99173552
0.039669421 -0.094214879 0.99173552
0.044628099 -0.094214879 0.99173552
0.049586777 -0.094214879 0.99173552
0.054545455 -0.094214879 0.99173552
0.059504133 -0.094214879 0.99173552
0.064462811 -0.094214879 0.99173552
0.069421485 -0.094214879 0.99173552
0.074380167 -0.094214879 0.99173552
0.079338841 -0.094214879 0.99173552
0.084297523 -0.094214879 0.99173552
0.089256197 -0.094214879 0.99173552
0.094214879 -0.094214879 0.99173552
0.099173553 -0.094214879 0.99173552
0.105 -0.094999999 1
0.11 -0.094999999 1
0.115 -0.094999999 1
0.12 -0.094999999 1
0.125 -0.094999999 1
0.13 -0.094999999 1
0.13613446 -0.095798321 1.0084034
0.14117648 -0.095798321 1.0084034
0.14745763 -0.096610166 1.0169492
0.15254237 -0.096610166 1.0169492
0.15762712 -0.096610166 1.0169492
0.16410257 -0.097435899 1.0256411
0.17068966 -0.098275863 1.0344827
0.17586207 -0.098275863 1.0344827
0.18103448 -0.098275863 1.0344827
0.18620689 -0.098275863 1.0344827
0.19473684 -0.1 1.0526316
0.20176992 -0.10088496 1.0619469
0.20707965 -0.10088496 1.0619469
0.21428572 -0.10178571 1.0714285
0.22162162 -0.1027027 1.081081
0.22909091 -0.10363636 1.0909091
0.23454545 -0.10363636 1.0909091
0.24672897 -0.10654206 1.1214954
0.25233644 -0.10654206 1.1214954
0.26538461 -0.10961539 1.1538461
0.27115384 -0.10961539 1.1538461
0.27692309 -0.10961539 1.1538461
0.28269231 -0.10961539 1.1538461
-0.46987951 -0.13012049 1.4457831
-0.4626506 -0.13012049 1.4457831
-0.45542169 -0.13012049 1.4457831
-0.44819278 -0.13012049 1.4457831
-0.44096386 -0.13012049 1.4457831
-0.43373495 -0.13012049 1.4457831
-0.42650601 -0.13012049 1.4457831
-0.4192771 -0.13012049 1.4457831
-0.41204819 -0.13012049 1.4457831
-0.40481928 -0.13012049 1.4457831
-0.39759037 -0.13012049 1.4457831
-0.39036146 -0.13012049 1.4457831
-0.38313252 -0.13012049 1.4457831
-0.3804878 -0.13170731 1.4634147
-0.37317073 -0.13170731 1.4634147
-0.36585367 -0.13170731 1.4634147
-0.35853657 -0.13170731 1.4634147
-0.35555556 -0.13333334 1.4814814
-0.34814814 -0.13333334 1.4814814
-0.345 -0.13500001 1.5
-0.33750001 -0.13500001 1.5
-0.33417723 -0.13670886 1.5189873
-0.32658228 -0.13670886 1.5189873
-0.31898734 -0.13670886 1.5189873
-0.26451612 -0.11612903 1.2903225
-0.25806451 -0.11612903 1.2903225
-0.24631579 -0.11368421 1.2631578
-0.23999999 -0.11368421 1.2631578
-0.23125 -0.1125 1.25
-0.22499999 -0.1125 1.25
-0.21875 -0.1125 1.25
-0.20816326 -0.11020408 1.2244898
-0.20204082 -0.11020408 1.2244898
-0.19591837 -0.11020408 1.2244898
-0.18787879 -0.10909091 1.2121212
-0.18181819 -0.10909091 1.2121212
-0.17575757 -0.10909091 1.2121212
-0.16969697 -0.10909091 1.2121212
-0.162 -0.108 1.2
-0.156 -0.108 1.2
-0.15000001 -0.108 1.2
-0.14399999 -0.108 1.2
-0.12777779 -0.1 1.1111112
-0.12222222 -0.1 1.1111112
-0.11351351 -0.097297296 1.081081
-0.10810811 -0.097297296 1.081081
-0.10088496 -0.095575221 1.0619469
-0.093913041 -0.093913041 1.0434783
-0.088695653 -0.093913041 1.0434783
-0.08275862 -0.093103446 1.0344827
-0.07692308 -0.092307694 1.0256411
-0.071794875 -0.092307694 1.0256411
-0.065546222 -0.090756305 1.0084034
-0.060504202 -0.090756305 1.0084034
-0.055 -0.090000004 1
-0.050000001 -0.090000004 1
-0.045000002 -0.090000004 1
-0.039999999 -0.090000004 1
-0.034710743 -0.089256197 0.99173552
-0.029752066 -0.089256197 0.99173552
-0.024793388 -0.089256197 0.99173552
-0.01983471 -0.089256197 0.99173552
-0.014876033 -0.089256197 0.99173552
-0.0099173551 -0.089256197 0.99173552
-0.0049586776 -0.089256197 0.99173552
0 -0.089256197 0.99173552
0.0049586776 -0.089256197 0.99173552
0.0099173551 -0.089256197 0.99173552
0.014876033 -0.089256197 0.99173552
0.01983471 -0.089256197 0.99173552
0.024793388 -0.089256197 0.99173552
0.029752066 -0.089256197 0.99173552
0.034710743 -0.089256197 0.99173552
0.039669421 -0.089256197 0.99173552
0.044628099 -0.089256197 0.99173552
0.049586777 -0.089256197 0.99173552
0.054545455 -0.089256197 0.99173552
0.059504133 -0.089256197 0.99173552
0.064462811 -0.089256197 0.99173552
0.069421485 -0.089256197 0.99173552
0.074380167 -0.089256197 0.99173552
0.079338841 -0.089256197 0.99173552
0.084297523 -0.089256197 0.99173552
0.089256197 -0.089256197 0.99173552
0.094214879 -0.089256197 0.99173552
0.099173553 -0.089256197 0.99173552
0.105 -0.090000004 1
0.11 -0.090000004 1
0.115 -0.090000004 1
0.12 -0.090000004 1
0.125 -0.090000004 1
0.13 -0.090000004 1
0.13613446 -0.090756305 1.0084034
0.14117648 -0.090756305 1.0084034
0.14745763 -0.091525421 1.0169492
0.15254237 -0.091525421 1.0169492
0.15897436 -0.092307694 1.0256411
0.16410257 -0.092307694 1.0256411
0.17068966 -0.093103446 1.0344827
0.17586207 -0.093103446 1.0344827
0.18103448 -0.093103446 1.0344827
0.18620689 -0.093103446 1.0344827
0.19473684 -0.094736844 1.0526316
0.2 -0.094736844 1.0526316
0.20707965 -0.095575221 1.0619469
0.21428572 -0.096428573 1.0714285
0.22162162 -0.097297296 1.081081
0.22909091 -0.098181821 1.0909091
0.23454545 -0.098181821 1.0909091
0.24672897 -0.10093458 1.1214954
0.25233644 -0.10093458 1.1214954
0.26538461 -0.10384616 1.1538461
0.27115384 -0.10384616 1.1538461
0.27692309 -0.10384616 1.1538461
0.28269231 -0.10384616 1.1538461
0.28846154 -0.10384616 1.1538461
-0.4626506 -0.12289157 1.4457831
-0.45542169 -0.12289157 1.4457831
-0.44819278 -0.12289157 1.4457831
-0.44096386 -0.12289157 1.4457831
-0.43373495 -0.12289157 1.4457831
-0.42650601 -0.12289157 1.4457831
-0.4192771 -0.12289157 1.4457831
-0.41204819 -0.12289157 1.4457831
-0.40481928 -0.12289157 1.4457831
-0.39759037 -0.12289157 1.4457831
-0.39036146 -0.12289157 1.4457831
-0.38313252 -0.12289157 1.4457831
-0.3804878 -0.12439024 1.4634147
-0.37317073 -0.12439024 1.4634147
-0.36585367 -0.12439024 1.4634147
-0.35853657 -0.12439024 1.4634147
-0.35555556 -0.12592593 1.4814814
-0.34814814 -0.12592593 1.4814814
-0.345 -0.1275 1.5
-0.33750001 -0.1275 1.5
-0.33417723 -0.12911393 1.5189873
-0.32658228 -0.12911393 1.5189873
-0.31898734 -0.12911393 1.5189873
-0.26170212 -0.10851064 1.2765957
-0.25531915 -0.10851064 1.2765957
-0.24893618 -0.10851064 1.2765957
-0.23999999 -0.10736842 1.2631578
-0.23368421 -0.10736842 1.2631578
-0.22499999 -0.10625 1.25
-0.21649484 -0.10515464 1.2371134
-0.21030928 -0.10515464 1.2371134
-0.20204082 -0.10408163 1.2244898
-0.19591837 -0.10408163 1.2244898
-0.18787879 -0.1030303 1.2121212
-0.18181819 -0.1030303 1.2121212
-0.17575757 -0.1030303 1.2121212
-0.16969697 -0.1030303 1.2121212
-0.16363636 -0.1030303 1.2121212
-0.156 -0.102 1.2
-0.15000001 -0.102 1.2
-0.14399999 -0.102 1.2
-0.12777779 -0.094444446 1.1111112
-0.12222222 -0.094444446 1.1111112
-0.11351351 -0.091891892 1.081081
-0.10619469 -0.09026549 1.0619469
-0.10088496 -0.09026549 1.0619469
-0.094736844 -0.089473687 1.0526316
-0.088695653 -0.088695653 1.0434783
-0.08275862 -0.087931037 1.0344827
-0.07692308 -0.087179489 1.0256411
-0.071794875 -0.087179489 1.0256411
-0.065546222 -0.085714288 1.0084034
-0.060504202 -0.085714288 1.0084034
-0.055 -0.085000001 1
-0.050000001 -0.085000001 1
-0.045000002 -0.085000001 1
-0.039999999 -0.085000001 1
-0.035 -0.085000001 1
-0.029752066 -0.084297523 0.99173552
-0.024793388 -0.084297523 0.99173552
-0.01983471 -0.084297523 0.99173552
-0.014876033 -0.084297523 0.99173552
-0.0099173551 -0.084297523 0.99173552
-0.0049586776 -0.084297523 0.99173552
0 -0.084297523 0.99173552
0.0049586776 -0.084297523 0.99173552
0.0099173551 -0.084297523 0.99173552
0.014876033 -0.084297523 0.99173552
0.01983471 -0.084297523 0.99173552
0.024793388 -0.084297523 0.99173552
0.029752066 -0.084297523 0.99173552
0.034710743 -0.084297523 0.99173552
0.039669421 -0.084297523 0.99173552
0.044628099 -0.084297523 0.99173552
0.049586777 -0.084297523 0.99173552
0.054545455 -0.084297523 0.99173552
0.059504133 -0.084297523 0.99173552
0.064462811 -0.084297523 0.99173552
0.069421485 -0.084297523 0.99173552
0.074380167 -0.084297523 0.99173552
0.079338841 -0.084297523 0.99173552
0.084297523 -0.084297523 0.99173552
0.089256197 -0.084297523 0.99173552
0.094214879 -0.084297523 0.99173552
0.099173553 -0.084297523 0.99173552
0.105 -0.085000001 1
0.11 -0.085000001 1
0.115 -0.085000001 1
0.12 -0.085000001 1
0.125 -0.085000001 1
0.13109244 -0.085714288 1.0084034
0.13613446 -0.085714288 1.0084034
0.14117648 -0.085714288 1.0084034
0.14745763 -0.086440675 1.0169492
0.15254237 -0.086440675 1.0169492
0.15897436 -0.087179489 1.0256411
0.16410257 -0.087179489 1.0256411
0.17068966 -0.087931037 1.0344827
0.17586207 -0.087931037 1.0344827
0.18260869 -0.088695653 1.0434783
0.18782608 -0.088695653 1.0434783
0.19473684 -0.089473687 1.0526316
0.20176992 -0.09026549 1.0619469
0.20707965 -0.09026549 1.0619469
0.21621622 -0.091891892 1.081081
0.22363636 -0.092727274 1.0909091
0.22909091 -0.092727274 1.0909091
0.23454545 -0.092727274 1.0909091
0.24672897 -0.095327102 1.1214954
0.25233644 -0.095327102 1.1214954
0.26538461 -0.098076925 1.1538461
0.27115384 -0.098076925 1.1538461
0.27692309 -0.098076925 1.1538461
0.2854369 -0.099029124 1.1650486
0.29126215 -0.099029124 1.1650486
0.29708737 -0.099029124 1.1650486
-0.47710842 -0.11566265 1.4457831
-0.46987951 -0.11566265 1.4457831
-0.4626506 -0.11566265 1.4457831
-0.45542169 -0.11566265 1.4457831
-0.44819278 -0.11566265 1.4457831
-0.44096386 -0.11566265 1.4457831
-0.43373495 -0.11566265 1.4457831
-0.42650601 -0.11566265 1.4457831
-0.4192771 -0.11566265 1.4457831
-0.41204819 -0.11566265 1.4457831
-0.40481928 -0.11566265 1.4457831
-0.39759037 -0.11566265 1.4457831
-0.39036146 -0.11566265 1.4457831
-0.38313252 -0.11566265 1.4457831
-0.3804878 -0.11707317 1.4634147
-0.37317073 -0.11707317 1.4634147
-0.36585367 -0.11707317 1.4634147
-0.36296296 -0.11851852 1.4814814
-0.35555556 -0.11851852 1.4814814
-0.35249999 -0.12 1.5
-0.345 -0.12 1.5
-0.33750001 -0.12 1.5
-0.33417723 -0.12151898 1.5189873
-0.32658228 -0.12151898 1.5189873
-0.31898734 -0.12151898 1.5189873
-0.26170212 -0.10212766 1.2765957
-0.25531915 -0.10212766 1.2765957
-0.24893618 -0.10212766 1.2765957
-0.24255319 -0.10212766 1.2765957
-0.23125 -0.1 1.25
-0.22499999 -0.1 1.25
-0.21649484 -0.098969072 1.2371134
-0.21030928 -0.098969072 1.2371134
-0.20204082 -0.097959183 1.2244898
-0.19591837 -0.097959183 1.2244898
-0.18979591 -0.097959183 1.2244898
-0.18181819 -0.096969694 1.2121212
-0.17575757 -0.096969694 1.2121212
-0.16969697 -0.096969694 1.2121212
-0.16363636 -0.096969694 1.2121212
-0.15757576 -0.096969694 1.2121212
-0.15000001 -0.096000001 1.2
-0.14399999 -0.096000001 1.2
-0.12222222 -0.088888891 1.1111112
-0.11150443 -0.084955752 1.0619469
-0.10619469 -0.084955752 1.0619469
-0.10088496 -0.084955752 1.0619469
-0.094736844 -0.08421053 1.0526316
-0.088695653 -0.083478265 1.0434783
-0.08275862 -0.08275862 1.0344827
-0.077586204 -0.08275862 1.0344827
-0.071186438 -0.081355929 1.0169492
-0.066101693 -0.081355929 1.0169492
-0.060504202 -0.080672272 1.0084034
-0.055462185 -0.080672272 1.0084034
-0.050000001 -0.079999998 1
-0.045000002 -0.079999998 1
-0.039999999 -0.079999998 1
-0.035 -0.079999998 1
-0.029999999 -0.079999998 1
-0.024793388 -0.079338841 0.99173552
-0.01983471 -0.079338841 0.99173552
-0.014876033 -0.079338841 0.99173552
-0.0099173551 -0.079338841 0.99173552
-0.0049586776 -0.079338841 0.99173552
0 -0.079338841 0.99173552
0.0049586776 -0.079338841 0.99173552
0.0099173551 -0.079338841 0.99173552
0.014876033 -0.079338841 0.99173552
0.01983471 -0.079338841 0.99173552
0.024793388 -0.079338841 0.99173552
0.029752066 -0.079338841 0.99173552
0.034710743 -0.079338841 0.99173552
0.039669421 -0.079338841 0.99173552
0.044628099 -0.079338841 0.99173552
0.049586777 -0.079338841 0.99173552
0.054545455 -0.079338841 0.99173552
0.059504133 -0.079338841 0.99173552
0.064462811 -0.079338841 0.99173552
0.069421485 -0.079338841 0.99173552
0.074380167 -0.079338841 0.99173552
0.079338841 -0.079338841 0.99173552
0.084297523 -0.079338841 0.99173552
0.089256197 -0.079338841 0.99173552
0.094214879 -0.079338841 0.99173552
0.099173553 -0.079338841 0.99173552
0.105 -0.079999998 1
0.11 -0.079999998 1
0.115 -0.079999998 1
0.12 -0.079999998 1
0.12605043 -0.080672272 1.0084034
0.13109244 -0.080672272 1.0084034
0.13613446 -0.080672272 1.0084034
0.14237288 -0.081355929 1.0169492
0.14745763 -0.081355929 1.0169492
0.15384616 -0.082051285 1.0256411
0.15897436 -0.082051285 1.0256411
0.16410257 -0.082051285 1.0256411
0.17068966 -0.08275862 1.0344827
0.17586207 -0.08275862 1.0344827
0.18260869 -0.083478265 1.0434783
0.18782608 -0.083478265 1.0434783
0.19304349 -0.083478265 1.0434783
0.20176992 -0.084955752 1.0619469
0.21081081 -0.086486489 1.081081
0.21621622 -0.086486489 1.081081
0.22363636 -0.087272726 1.0909091
0.23119266 -0.088073395 1.1009175
0.23669724 -0.088073395 1.1009175
0.24672897 -0.089719623 1.1214954
0.25714287 -0.09142857 1.1428572
0.26538461 -0.092307694 1.1538461
0.27115384 -0.092307694 1.1538461
0.27692309 -0.092307694 1.1538461
0.2854369 -0.09320388 1.1650486
0.29126215 -0.09320388 1.1650486
0.29708737 -0.09320388 1.1650486
0.30291262 -0.09320388 1.1650486
0.30873787 -0.09320388 1.1650486
0.3145631 -0.09320388 1.1650486
-0.47710842 -0.10843374 1.4457831
-0.46987951 -0.10843374 1.4457831
-0.4626506 -0.10843374 1.4457831
-0.45542169 -0.10843374 1.4457831
-0.44819278 -0.10843374 1.4457831
-0.44096386 -0.10843374 1.4457831
-0.43373495 -0.10843374 1.4457831
-0.42650601 -0.10843374 1.4457831
-0.4192771 -0.10843374 1.4457831
-0.41204819 -0.10843374 1.4457831
-0.40481928 -0.10843374 1.4457831
-0.39759037 -0.10843374 1.4457831
-0.39036146 -0.10843374 1.4457831
-0.38313252 -0.10843374 1.4457831
-0.3804878 -0.1097561 1.4634147
-0.37317073 -0.1097561 1.4634147
-0.37037036 -0.11111111 1.4814814
-0.36296296 -0.11111111 1.4814814
-0.35555556 -0.11111111 1.4814814
-0.34814814 -0.11111111 1.4814814
-0.345 -0.1125 1.5
-0.33750001 -0.1125 1.5
-0.33000001 -0.1125 1.5
-0.30731708 -0.1097561 1.4634147
-0.26170212 -0.095744684 1.2765957
-0.25531915 -0.095744684 1.2765957
-0.24893618 -0.095744684 1.2765957
-0.24255319 -0.095744684 1.2765957
-0.23125 -0.09375 1.25
-0.22499999 -0.09375 1.25
-0.21649484 -0.092783503 1.2371134
-0.21030928 -0.092783503 1.2371134
-0.20412371 -0.092783503 1.2371134
-0.19591837 -0.091836736 1.2244898
-0.18979591 -0.091836736 1.2244898
-0.18181819 -0.090909094 1.2121212
-0.17575757 -0.090909094 1.2121212
-0.16969697 -0.090909094 1.2121212
-0.16363636 -0.090909094 1.2121212
-0.15757576 -0.090909094 1.2121212
-0.15151516 -0.090909094 1.2121212
-0.14545454 -0.090909094 1.2121212
-0.11150443 -0.079646021 1.0619469
-0.10619469 -0.079646021 1.0619469
-0.10088496 -0.079646021 1.0619469
-0.094736844 -0.078947365 1.0526316
-0.088695653 -0.078260869 1.0434783
-0.083478265 -0.078260869 1.0434783
-0.076271184 -0.076271184 1.0169492
-0.071186438 -0.076271184 1.0169492
-0.066101693 -0.076271184 1.0169492
-0.060504202 -0.075630255 1.0084034
-0.055462185 -0.075630255 1.0084034
-0.050420169 -0.075630255 1.0084034
-0.045000002 -0.075000003 1
-0.039999999 -0.075000003 1
-0.035 -0.075000003 1
-0.029999999 -0.075000003 1
-0.025 -0.075000003 1
-0.01983471 -0.074380167 0.99173552
-0.014876033 -0.074380167 0.99173552
-0.0099173551 -0.074380167 0.99173552
-0.0049586776 -0.074380167 0.99173552
0 -0.074380167 0.99173552
0.0049586776 -0.074380167 0.99173552
0.0099173551 -0.074380167 0.99173552
0.014876033 -0.074380167 0.99173552
0.01983471 -0.074380167 0.99173552
0.024793388 -0.074380167 0.99173552
0.029752066 -0.074380167 0.99173552
0.034710743 -0.074380167 0.99173552
0.039669421 -0.074380167 0.99173552
0.044628099 -0.074380167 0.99173552
0.049586777 -0.074380167 0.99173552
0.054545455 -0.074380167 0.99173552
0.059504133 -0.074380167 0.99173552
0.064462811 -0.074380167 0.99173552
0.069421485 -0.074380167 0.99173552
0.074380167 -0.074380167 0.99173552
0.079999998 -0.075000003 1
0.085000001 -0.075000003 1
0.090000004 -0.075000003 1
0.094999999 -0.075000003 1
0.1 -0.075000003 1
0.105 -0.075000003 1
0.11092437 -0.075630255 1.0084034
0.115 -0.075000003 1
0.12 -0.075000003 1
0.12605043 -0.075630255 1.0084034
0.13109244 -0.075630255 1.0084034
0.13613446 -0.075630255 1.0084034
0.14237288 -0.076271184 1.0169492
0.14745763 -0.076271184 1.0169492
0.15384616 -0.07692308 1.0256411
0.15897436 -0.07692308 1.0256411
0.16410257 -0.07692308 1.0256411
0.17068966 -0.077586204 1.0344827
0.17586207 -0.077586204 1.0344827
0.18260869 -0.078260869 1.0434783
