# .PCD v0.7 - Point Cloud Data file format
VERSION 0.7
FIELDS x y z
SIZE 4 4 4
TYPE F F F
COUNT 1 1 1
WIDTH 1435
HEIGHT 1
VIEWPOINT 0 0 0 1 0 0 0
POINTS 1435
DATA ascii
0.30731708 0.051219512 1.4634147
0.31851852 0.05185185 1.4814814
0.32592592 0.05185185 1.4814814
0.34177214 0.053164557 1.5189873
0.34936708 0.053164557 1.5189873
0.35696203 0.053164557 1.5189873
-0.3262136 0.04660194 1.1650486
-0.32038835 0.04660194 1.1650486
-0.3145631 0.04660194 1.1650486
-0.30873787 0.04660194 1.1650486
-0.30000001 0.046153847 1.1538461
-0.29423076 0.046153847 1.1538461
-0.2857143 0.045714285 1.1428572
-0.28 0.045714285 1.1428572
-0.2742857 0.045714285 1.1428572
-0.26857144 0.045714285 1.1428572
-0.26285714 0.045714285 1.1428572
-0.25471699 0.04528302 1.1320754
-0.24905661 0.04528302 1.1320754
-0.24339622 0.04528302 1.1320754
-0.23773585 0.04528302 1.1320754
-0.22990654 0.044859812 1.1214954
-0.22429906 0.044859812 1.1214954
-0.21869159 0.044859812 1.1214954
-0.21308412 0.044859812 1.1214954
-0.20747663 0.044859812 1.1214954
-0.2 0.044444446 1.1111112
-0.19626169 0.044859812 1.1214954
-0.1906542 0.044859812 1.1214954
-0.18504673 0.044859812 1.1214954
-0.17943925 0.044859812 1.1214954
-0.17383178 0.044859812 1.1214954
-0.1682243 0.044859812 1.1214954
-0.16261682 0.044859812 1.1214954
-0.15849057 0.04528302 1.1320754
-0.15283018 0.04528302 1.1320754
-0.14579439 0.044859812 1.1214954
-0.14018692 0.044859812 1.1214954
-0.13584906 0.04528302 1.1320754
-0.13018867 0.04528302 1.1320754
-0.1245283 0.04528302 1.1320754
-0.11886793 0.04528302 1.1320754
-0.11428571 0.045714285 1.1428572
-0.10857143 0.045714285 1.1428572
-0.10384616 0.046153847 1.1538461
-0.098076925 0.046153847 1.1538461
-0.09320388 0.04660194 1.1650486
-0.087378643 0.04660194 1.1650486
-0.082352944 0.047058824 1.1764706
-0.076470591 0.047058824 1.1764706
-0.070588239 0.047058824 1.1764706
-0.066 0.048 1.2
-0.059999999 0.048 1.2
-0.054000001 0.048 1.2
-0.048979592 0.048979592 1.2244898
-0.042857144 0.048979592 1.2244898
-0.036734693 0.048979592 1.2244898
-0.030927835 0.049484536 1.2371134
-0.024742268 0.049484536 1.2371134
-0.018556701 0.049484536 1.2371134
-0.012371134 0.049484536 1.2371134
-0.006185567 0.049484536 1.2371134
0 0.049484536 1.2371134
0.041538462 0.036923077 0.92307693
0.045801528 0.036641221 0.91603053
0.050381679 0.036641221 0.91603053
0.059090909 0.036363635 0.90909094
0.06268657 0.035820894 0.89552242
0.067164183 0.035820894 0.89552242
0.071641788 0.035820894 0.89552242
0.076119401 0.035820894 0.89552242
0.079999998 0.035555556 0.8888889
0.084444441 0.035555556 0.8888889
0.088235296 0.035294119 0.88235295
0.092647061 0.035294119 0.88235295
0.097058825 0.035294119 0.88235295
0.10147059 0.035294119 0.88235295
0.10434783 0.034782607 0.86956519
0.10791367 0.034532376 0.86330932
0.11223022 0.034532376 0.86330932
0.11654676 0.034532376 0.86330932
0.12086331 0.034532376 0.86330932
0.12517986 0.034532376 0.86330932
0.26428571 0.057142857 1.4285715
0.27857143 0.057142857 1.4285715
0.29268292 0.058536585 1.4634147
0.30000001 0.058536585 1.4634147
0.30731708 0.058536585 1.4634147
0.31851852 0.059259258 1.4814814
0.32592592 0.059259258 1.4814814
0.33333334 0.059259258 1.4814814
0.34074074 0.059259258 1.4814814
0.35696203 0.060759492 1.5189873
-0.33203885 0.052427184 1.1650486
-0.3262136 0.052427184 1.1650486
-0.32038835 0.052427184 1.1650486
-0.3145631 0.052427184 1.1650486
-0.30873787 0.052427184 1.1650486
-0.30000001 0.051923078 1.1538461
-0.29423076 0.051923078 1.1538461
-0.2857143 0.051428571 1.1428572
-0.28 0.051428571 1.1428572
-0.2742857 0.051428571 1.1428572
-0.26857144 0.051428571 1.1428572
-0.26037735 0.050943397 1.1320754
-0.25471699 0.050943397 1.1320754
-0.24905661 0.050943397 1.1320754
-0.2411215 0.05046729 1.1214954
-0.23551401 0.05046729 1.1214954
-0.22990654 0.05046729 1.1214954
-0.22429906 0.05046729 1.1214954
-0.21666667 0.050000001 1.1111112
-0.21111111 0.050000001 1.1111112
-0.20747663 0.05046729 1.1214954
-0.2 0.050000001 1.1111112
-0.19444445 0.050000001 1.1111112
-0.18888889 0.050000001 1.1111112
-0.18504673 0.05046729 1.1214954
-0.17943925 0.05046729 1.1214954
-0.17383178 0.05046729 1.1214954
-0.1682243 0.05046729 1.1214954
-0.16261682 0.05046729 1.1214954
-0.15700935 0.05046729 1.1214954
-0.15140186 0.05046729 1.1214954
-0.14579439 0.05046729 1.1214954
-0.14018692 0.05046729 1.1214954
-0.13584906 0.050943397 1.1320754
-0.13018867 0.050943397 1.1320754
-0.1245283 0.050943397 1.1320754
-0.11886793 0.050943397 1.1320754
-0.11428571 0.051428571 1.1428572
-0.10857143 0.051428571 1.1428572
-0.10384616 0.051923078 1.1538461
-0.098076925 0.051923078 1.1538461
-0.092307694 0.051923078 1.1538461
-0.086538464 0.051923078 1.1538461
-0.082352944 0.052941177 1.1764706
-0.076470591 0.052941177 1.1764706
-0.070588239 0.052941177 1.1764706
-0.065346532 0.053465348 1.1881188
-0.059999999 0.054000001 1.2
-0.054545455 0.054545455 1.2121212
-0.048979592 0.055102039 1.2244898
-0.042857144 0.055102039 1.2244898
-0.036734693 0.055102039 1.2244898
-0.030927835 0.055670105 1.2371134
-0.024742268 0.055670105 1.2371134
-0.018556701 0.055670105 1.2371134
-0.012371134 0.055670105 1.2371134
0.032307692 0.041538462 0.92307693
0.036923077 0.041538462 0.92307693
0.041538462 0.041538462 0.92307693
0.045801528 0.041221373 0.91603053
0.050381679 0.041221373 0.91603053
0.05496183 0.041221373 0.91603053
0.059090909 0.040909089 0.90909094
0.063157894 0.040601503 0.90225565
0.067164183 0.040298507 0.89552242
0.071641788 0.040298507 0.89552242
0.076119401 0.040298507 0.89552242
0.079999998 0.039999999 0.8888889
0.084444441 0.039999999 0.8888889
0.088235296 0.039705884 0.88235295
0.092647061 0.039705884 0.88235295
0.097058825 0.039705884 0.88235295
0.10147059 0.039705884 0.88235295
0.10434783 0.039130434 0.86956519
0.10791367 0.038848922 0.86330932
0.11223022 0.038848922 0.86330932
0.11654676 0.038848922 0.86330932
0.12086331 0.038848922 0.86330932
0.12517986 0.038848922 0.86330932
0.29268292 0.065853655 1.4634147
0.30000001 0.065853655 1.4634147
0.30731708 0.065853655 1.4634147
0.31463414 0.065853655 1.4634147
0.32592592 0.06666667 1.4814814
0.33750001 0.067500003 1.5
0.345 0.067500003 1.5
0.35249999 0.067500003 1.5
-0.3262136 0.058252428 1.1650486
-0.32038835 0.058252428 1.1650486
-0.3145631 0.058252428 1.1650486
-0.30873787 0.058252428 1.1650486
-0.30000001 0.057692308 1.1538461
-0.29142857 0.057142857 1.1428572
-0.2857143 0.057142857 1.1428572
-0.28 0.057142857 1.1428572
-0.27169812 0.056603774 1.1320754
-0.26603773 0.056603774 1.1320754
-0.26037735 0.056603774 1.1320754
-0.25471699 0.056603774 1.1320754
-0.24905661 0.056603774 1.1320754
-0.2411215 0.056074765 1.1214954
-0.23551401 0.056074765 1.1214954
-0.22990654 0.056074765 1.1214954
-0.22429906 0.056074765 1.1214954
-0.21666667 0.055555556 1.1111112
-0.21111111 0.055555556 1.1111112
-0.20555556 0.055555556 1.1111112
-0.2 0.055555556 1.1111112
-0.19444445 0.055555556 1.1111112
-0.18888889 0.055555556 1.1111112
-0.18333334 0.055555556 1.1111112
-0.17943925 0.056074765 1.1214954
-0.17383178 0.056074765 1.1214954
-0.1682243 0.056074765 1.1214954
-0.16261682 0.056074765 1.1214954
-0.15700935 0.056074765 1.1214954
-0.15140186 0.056074765 1.1214954
-0.14579439 0.056074765 1.1214954
-0.14018692 0.056074765 1.1214954
-0.13457943 0.056074765 1.1214954
-0.13018867 0.056603774 1.1320754
-0.1245283 0.056603774 1.1320754
-0.11886793 0.056603774 1.1320754
-0.11428571 0.057142857 1.1428572
-0.10857143 0.057142857 1.1428572
-0.10285714 0.057142857 1.1428572
-0.098076925 0.057692308 1.1538461
-0.092307694 0.057692308 1.1538461
-0.086538464 0.057692308 1.1538461
-0.0815534 0.058252428 1.1650486
-0.076470591 0.05882353 1.1764706
-0.070588239 0.05882353 1.1764706
-0.065346532 0.059405942 1.1881188
-0.059999999 0.059999999 1.2
-0.054545455 0.060606062 1.2121212
-0.048979592 0.06122449 1.2244898
-0.042857144 0.06122449 1.2244898
-0.036734693 0.06122449 1.2244898
-0.030927835 0.06185567 1.2371134
-0.024742268 0.06185567 1.2371134
-0.018556701 0.06185567 1.2371134
0.0094488189 0.047244094 0.94488192
0.027692307 0.046153847 0.92307693
0.032307692 0.046153847 0.92307693
0.036923077 0.046153847 0.92307693
0.041538462 0.046153847 0.92307693
0.045801528 0.045801528 0.91603053
0.050381679 0.045801528 0.91603053
0.05496183 0.045801528 0.91603053
0.059090909 0.045454547 0.90909094
0.063157894 0.045112781 0.90225565
0.067164183 0.044776119 0.89552242
0.071641788 0.044776119 0.89552242
0.076119401 0.044776119 0.89552242
0.079999998 0.044444446 0.8888889
0.084444441 0.044444446 0.8888889
0.088235296 0.044117648 0.88235295
0.092647061 0.044117648 0.88235295
0.097058825 0.044117648 0.88235295
0.10072993 0.043795619 0.87591243
0.10434783 0.043478262 0.86956519
0.10869565 0.043478262 0.86956519
0.11223022 0.043165468 0.86330932
0.11654676 0.043165468 0.86330932
0.12086331 0.043165468 0.86330932
0.12517986 0.043165468 0.86330932
0.1294964 0.043165468 0.86330932
0.29268292 0.073170729 1.4634147
0.30000001 0.073170729 1.4634147
0.30731708 0.073170729 1.4634147
0.31463414 0.073170729 1.4634147
0.32592592 0.074074075 1.4814814
0.33750001 0.075000003 1.5
0.345 0.075000003 1.5
0.35249999 0.075000003 1.5
0.36000001 0.075000003 1.5
-0.33203885 0.064077668 1.1650486
-0.3262136 0.064077668 1.1650486
-0.32038835 0.064077668 1.1650486
-0.3145631 0.064077668 1.1650486
-0.30873787 0.064077668 1.1650486
-0.29714286 0.062857144 1.1428572
-0.29142857 0.062857144 1.1428572
-0.2857143 0.062857144 1.1428572
-0.28 0.062857144 1.1428572
-0.27169812 0.062264152 1.1320754
-0.26603773 0.062264152 1.1320754
-0.26037735 0.062264152 1.1320754
-0.25471699 0.062264152 1.1320754
-0.24905661 0.062264152 1.1320754
-0.23888889 0.061111111 1.1111112
-0.23333333 0.061111111 1.1111112
-0.22990654 0.061682243 1.1214954
-0.22222222 0.061111111 1.1111112
-0.21666667 0.061111111 1.1111112
-0.21111111 0.061111111 1.1111112
-0.20555556 0.061111111 1.1111112
-0.2 0.061111111 1.1111112
-0.19444445 0.061111111 1.1111112
-0.18888889 0.061111111 1.1111112
-0.18333334 0.061111111 1.1111112
-0.17777778 0.061111111 1.1111112
-0.17383178 0.061682243 1.1214954
-0.1682243 0.061682243 1.1214954
-0.16111112 0.061111111 1.1111112
-0.15555556 0.061111111 1.1111112
-0.15140186 0.061682243 1.1214954
-0.14579439 0.061682243 1.1214954
-0.14018692 0.061682243 1.1214954
-0.13457943 0.061682243 1.1214954
-0.13018867 0.062264152 1.1320754
-0.1245283 0.062264152 1.1320754
-0.11775701 0.061682243 1.1214954
-0.11320755 0.062264152 1.1320754
-0.10857143 0.062857144 1.1428572
-0.10188679 0.062264152 1.1320754
-0.098076925 0.063461542 1.1538461
-0.092307694 0.063461542 1.1538461
-0.086538464 0.063461542 1.1538461
-0.0815534 0.064077668 1.1650486
-0.075728156 0.064077668 1.1650486
-0.070588239 0.064705886 1.1764706
-0.064705886 0.064705886 1.1764706
-0.059999999 0.066 1.2
-0.054000001 0.066 1.2
-0.048979592 0.067346938 1.2244898
-0.042857144 0.067346938 1.2244898
-0.036734693 0.067346938 1.2244898
-0.030927835 0.068041235 1.2371134
-0.024742268 0.068041235 1.2371134
-0.018556701 0.068041235 1.2371134
0 0.051968504 0.94488192
0.0047244094 0.051968504 0.94488192
0.0094488189 0.051968504 0.94488192
0.014173228 0.051968504 0.94488192
0.018897638 0.051968504 0.94488192
0.027692307 0.050769232 0.92307693
0.032307692 0.050769232 0.92307693
0.036923077 0.050769232 0.92307693
0.041538462 0.050769232 0.92307693
0.045801528 0.050381679 0.91603053
0.050381679 0.050381679 0.91603053
0.05496183 0.050381679 0.91603053
0.059090909 0.050000001 0.90909094
0.063157894 0.049624059 0.90225565
0.067669176 0.049624059 0.90225565
0.071641788 0.049253732 0.89552242
0.076119401 0.049253732 0.89552242
0.079999998 0.048888888 0.8888889
0.084444441 0.048888888 0.8888889
0.088235296 0.048529413 0.88235295
0.092647061 0.048529413 0.88235295
0.096350364 0.048175182 0.87591243
0.10072993 0.048175182 0.87591243
0.10434783 0.047826085 0.86956519
0.10869565 0.047826085 0.86956519
0.11223022 0.047482014 0.86330932
0.11654676 0.047482014 0.86330932
0.12086331 0.047482014 0.86330932
0.12517986 0.047482014 0.86330932
0.12765957 0.046808511 0.85106385
0.13521127 0.046478875 0.84507042
0.14685315 0.046153847 0.83916086
0.15416667 0.045833334 0.83333331
0.30000001 0.080487803 1.4634147
0.30731708 0.080487803 1.4634147
0.31851852 0.081481479 1.4814814
0.32592592 0.081481479 1.4814814
0.33750001 0.082500003 1.5
0.345 0.082500003 1.5
0.35249999 0.082500003 1.5
-0.33786407 0.069902912 1.1650486
-0.33203885 0.069902912 1.1650486
-0.3262136 0.069902912 1.1650486
-0.32038835 0.069902912 1.1650486
-0.3145631 0.069902912 1.1650486
-0.30873787 0.069902912 1.1650486
-0.29714286 0.068571426 1.1428572
-0.29142857 0.068571426 1.1428572
-0.2857143 0.068571426 1.1428572
-0.2773585 0.067924529 1.1320754
-0.27169812 0.067924529 1.1320754
-0.26603773 0.067924529 1.1320754
-0.26037735 0.067924529 1.1320754
-0.25233644 0.067289717 1.1214954
-0.24672897 0.067289717 1.1214954
-0.23888889 0.06666667 1.1111112
-0.23333333 0.06666667 1.1111112
-0.22777778 0.06666667 1.1111112
-0.22222222 0.06666667 1.1111112
-0.21666667 0.06666667 1.1111112
-0.21111111 0.06666667 1.1111112
-0.20555556 0.06666667 1.1111112
-0.2 0.06666667 1.1111112
-0.19444445 0.06666667 1.1111112
-0.18888889 0.06666667 1.1111112
-0.18333334 0.06666667 1.1111112
-0.17777778 0.06666667 1.1111112
-0.17222223 0.06666667 1.1111112
-0.16666667 0.06666667 1.1111112
-0.16111112 0.06666667 1.1111112
-0.15555556 0.06666667 1.1111112
-0.15000001 0.06666667 1.1111112
-0.14579439 0.067289717 1.1214954
-0.14018692 0.067289717 1.1214954
-0.13457943 0.067289717 1.1214954
-0.12897196 0.067289717 1.1214954
-0.12336449 0.067289717 1.1214954
-0.11775701 0.067289717 1.1214954
-0.11320755 0.067924529 1.1320754
-0.10754717 0.067924529 1.1320754
-0.10188679 0.067924529 1.1320754
-0.096226417 0.067924529 1.1320754
-0.09142857 0.068571426 1.1428572
-0.085714288 0.068571426 1.1428572
-0.0815534 0.069902912 1.1650486
-0.075000003 0.069230773 1.1538461
-0.070588239 0.070588239 1.1764706
-0.064705886 0.070588239 1.1764706
-0.05882353 0.070588239 1.1764706
-0.054000001 0.071999997 1.2
-0.048979592 0.073469386 1.2244898
-0.042857144 0.073469386 1.2244898
-0.036734693 0.073469386 1.2244898
-0.030612245 0.073469386 1.2244898
0 0.056692913 0.94488192
0.0047244094 0.056692913 0.94488192
0.0094488189 0.056692913 0.94488192
0.014173228 0.056692913 0.94488192
0.018750001 0.056249999 0.9375
0.0234375 0.056249999 0.9375
0.027692307 0.055384614 0.92307693
0.032307692 0.055384614 0.92307693
0.036923077 0.055384614 0.92307693
0.041538462 0.055384614 0.92307693
0.045801528 0.05496183 0.91603053
0.050381679 0.05496183 0.91603053
0.05496183 0.05496183 0.91603053
0.059090909 0.054545455 0.90909094
0.063157894 0.054135337 0.90225565
0.067669176 0.054135337 0.90225565
0.07218045 0.054135337 0.90225565
0.075555556 0.053333335 0.8888889
0.079999998 0.053333335 0.8888889
0.084444441 0.053333335 0.8888889
0.088235296 0.052941177 0.88235295
0.092647061 0.052941177 0.88235295
0.096350364 0.052554745 0.87591243
0.1 0.052173913 0.86956519
0.10434783 0.052173913 0.86956519
0.10869565 0.052173913 0.86956519
0.11223022 0.05179856 0.86330932
0.11654676 0.05179856 0.86330932
0.12 0.051428571 0.85714287
0.12428571 0.051428571 0.85714287
0.12765957 0.051063828 0.85106385
0.1319149 0.051063828 0.85106385
0.13521127 0.050704226 0.84507042
0.13943662 0.050704226 0.84507042
0.14265734 0.050349649 0.83916086
0.14685315 0.050349649 0.83916086
0.15104896 0.050349649 0.83916086
0.15416667 0.050000001 0.83333331
0.15833333 0.050000001 0.83333331
0.16249999 0.050000001 0.83333331
0.31111112 0.088888891 1.4814814
0.31851852 0.088888891 1.4814814
0.32592592 0.088888891 1.4814814
0.33750001 0.090000004 1.5
0.345 0.090000004 1.5
0.35249999 0.090000004 1.5
-0.33786407 0.075728156 1.1650486
-0.33203885 0.075728156 1.1650486
-0.3262136 0.075728156 1.1650486
-0.31730768 0.075000003 1.1538461
-0.31153846 0.075000003 1.1538461
-0.30285713 0.074285716 1.1428572
-0.29714286 0.074285716 1.1428572
-0.29142857 0.074285716 1.1428572
-0.2857143 0.074285716 1.1428572
-0.2773585 0.073584907 1.1320754
-0.26915887 0.072897196 1.1214954
-0.26603773 0.073584907 1.1320754
-0.26037735 0.073584907 1.1320754
-0.25233644 0.072897196 1.1214954
-0.24672897 0.072897196 1.1214954
-0.23888889 0.072222225 1.1111112
-0.23333333 0.072222225 1.1111112
-0.22777778 0.072222225 1.1111112
-0.22222222 0.072222225 1.1111112
-0.21666667 0.072222225 1.1111112
-0.21111111 0.072222225 1.1111112
-0.20555556 0.072222225 1.1111112
-0.2 0.072222225 1.1111112
-0.19444445 0.072222225 1.1111112
-0.18888889 0.072222225 1.1111112
-0.18333334 0.072222225 1.1111112
-0.17777778 0.072222225 1.1111112
-0.17222223 0.072222225 1.1111112
-0.16666667 0.072222225 1.1111112
-0.16111112 0.072222225 1.1111112
-0.15555556 0.072222225 1.1111112
-0.15000001 0.072222225 1.1111112
-0.14444445 0.072222225 1.1111112
-0.1388889 0.072222225 1.1111112
-0.13457943 0.072897196 1.1214954
-0.12897196 0.072897196 1.1214954
-0.12336449 0.072897196 1.1214954
-0.11775701 0.072897196 1.1214954
-0.11320755 0.073584907 1.1320754
-0.10654206 0.072897196 1.1214954
-0.10188679 0.073584907 1.1320754
-0.096226417 0.073584907 1.1320754
-0.09142857 0.074285716 1.1428572
-0.085714288 0.074285716 1.1428572
-0.079999998 0.074285716 1.1428572
-0.075000003 0.075000003 1.1538461
-0.070588239 0.076470591 1.1764706
-0.064705886 0.076470591 1.1764706
-0.05882353 0.076470591 1.1764706
-0.052941177 0.076470591 1.1764706
-0.047524754 0.077227719 1.1881188
-0.04158416 0.077227719 1.1881188
-0.0095238099 0.061904762 0.95238096
-0.0047619049 0.061904762 0.95238096
0 0.061417323 0.94488192
0.0047244094 0.061417323 0.94488192
0.0094488189 0.061417323 0.94488192
0.014173228 0.061417323 0.94488192
0.018750001 0.060937501 0.9375
0.0234375 0.060937501 0.9375
0.027906977 0.060465116 0.93023258
0.032558139 0.060465116 0.93023258
0.036923077 0.059999999 0.92307693
0.041538462 0.059999999 0.92307693
0.045801528 0.059541985 0.91603053
0.050381679 0.059541985 0.91603053
0.054135337 0.058646616 0.90225565
0.058646616 0.058646616 0.90225565
0.063157894 0.058646616 0.90225565
0.067669176 0.058646616 0.90225565
0.071111113 0.057777777 0.8888889
0.075555556 0.057777777 0.8888889
0.079999998 0.057777777 0.8888889
0.083823532 0.057352941 0.88235295
0.088235296 0.057352941 0.88235295
0.091304347 0.05652174 0.86956519
0.09565217 0.05652174 0.86956519
0.1 0.05652174 0.86956519
0.10434783 0.05652174 0.86956519
0.10869565 0.05652174 0.86956519
0.11223022 0.056115109 0.86330932
0.11571429 0.055714287 0.85714287
0.12 0.055714287 0.85714287
0.12340426 0.055319149 0.85106385
0.12765957 0.055319149 0.85106385
0.1319149 0.055319149 0.85106385
0.13521127 0.054929577 0.84507042
0.13943662 0.054929577 0.84507042
0.14265734 0.054545455 0.83916086
0.14685315 0.054545455 0.83916086
0.15104896 0.054545455 0.83916086
0.15416667 0.054166667 0.83333331
0.15833333 0.054166667 0.83333331
0.16249999 0.054166667 0.83333331
0.16666667 0.054166667 0.83333331
0.32592592 0.096296296 1.4814814
0.33750001 0.097499996 1.5
-0.34368932 0.0815534 1.1650486
-0.33786407 0.0815534 1.1650486
-0.33203885 0.0815534 1.1650486
-0.3262136 0.0815534 1.1650486
-0.31730768 0.080769233 1.1538461
-0.31153846 0.080769233 1.1538461
-0.30576923 0.080769233 1.1538461
-0.29714286 0.079999998 1.1428572
-0.28867924 0.079245284 1.1320754
-0.28301886 0.079245284 1.1320754
-0.2773585 0.079245284 1.1320754
-0.26915887 0.078504674 1.1214954
-0.26355141 0.078504674 1.1214954
-0.25794393 0.078504674 1.1214954
-0.25233644 0.078504674 1.1214954
-0.24444444 0.077777781 1.1111112
-0.23888889 0.077777781 1.1111112
-0.23333333 0.077777781 1.1111112
-0.22777778 0.077777781 1.1111112
-0.22222222 0.077777781 1.1111112
-0.21666667 0.077777781 1.1111112
-0.20917431 0.077064224 1.1009175
-0.20366973 0.077064224 1.1009175
-0.19816513 0.077064224 1.1009175
-0.19266056 0.077064224 1.1009175
-0.18888889 0.077777781 1.1111112
-0.18333334 0.077777781 1.1111112
-0.17777778 0.077777781 1.1111112
-0.17222223 0.077777781 1.1111112
-0.16666667 0.077777781 1.1111112
-0.16111112 0.077777781 1.1111112
-0.15555556 0.077777781 1.1111112
-0.15000001 0.077777781 1.1111112
-0.14444445 0.077777781 1.1111112
-0.1388889 0.077777781 1.1111112
-0.13333334 0.077777781 1.1111112
-0.12897196 0.078504674 1.1214954
-0.12336449 0.078504674 1.1214954
-0.11666667 0.077777781 1.1111112
-0.11214953 0.078504674 1.1214954
-0.10654206 0.078504674 1.1214954
-0.10093458 0.078504674 1.1214954
-0.096226417 0.079245284 1.1320754
-0.090566039 0.079245284 1.1320754
-0.085714288 0.079999998 1.1428572
-0.079999998 0.079999998 1.1428572
-0.075000003 0.080769233 1.1538461
-0.069230773 0.080769233 1.1538461
-0.064705886 0.082352944 1.1764706
-0.05882353 0.082352944 1.1764706
-0.053465348 0.08316832 1.1881188
-0.047524754 0.08316832 1.1881188
-0.04158416 0.08316832 1.1881188
-0.0095238099 0.06666667 0.95238096
-0.0047619049 0.06666667 0.95238096
0 0.06666667 0.95238096
0.0047244094 0.066141732 0.94488192
0.0094488189 0.066141732 0.94488192
0.0140625 0.065624997 0.9375
0.018750001 0.065624997 0.9375
0.0234375 0.065624997 0.9375
0.027906977 0.065116279 0.93023258
0.032558139 0.065116279 0.93023258
0.036923077 0.064615384 0.92307693
0.041538462 0.064615384 0.92307693
0.045801528 0.06412214 0.91603053
0.050381679 0.06412214 0.91603053
0.054545455 0.063636363 0.90909094
0.058646616 0.063157894 0.90225565
0.063157894 0.063157894 0.90225565
0.067164183 0.06268657 0.89552242
0.071641788 0.06268657 0.89552242
0.075555556 0.062222224 0.8888889
0.079411767 0.061764706 0.88235295
0.083823532 0.061764706 0.88235295
0.087591238 0.061313868 0.87591243
0.091304347 0.060869563 0.86956519
0.09565217 0.060869563 0.86956519
0.1 0.060869563 0.86956519
0.10359712 0.060431655 0.86330932
0.10791367 0.060431655 0.86330932
0.11142857 0.059999999 0.85714287
0.11571429 0.059999999 0.85714287
0.11914894 0.05957447 0.85106385
0.12340426 0.05957447 0.85106385
0.12765957 0.05957447 0.85106385
0.1319149 0.05957447 0.85106385
0.13521127 0.059154928 0.84507042
0.13943662 0.059154928 0.84507042
0.14265734 0.05874126 0.83916086
0.14685315 0.05874126 0.83916086
0.15104896 0.05874126 0.83916086
0.15416667 0.058333334 0.83333331
0.15833333 0.058333334 0.83333331
0.16249999 0.058333334 0.83333331
0.16666667 0.058333334 0.83333331
-0.36237624 0.089108914 1.1881188
-0.35643566 0.089108914 1.1881188
-0.35049504 0.089108914 1.1881188
-0.33786407 0.087378643 1.1650486
-0.33203885 0.087378643 1.1650486
-0.3262136 0.087378643 1.1650486
-0.31730768 0.086538464 1.1538461
-0.31153846 0.086538464 1.1538461
-0.30285713 0.085714288 1.1428572
-0.29714286 0.085714288 1.1428572
-0.28867924 0.084905662 1.1320754
-0.28301886 0.084905662 1.1320754
-0.2773585 0.084905662 1.1320754
-0.26915887 0.084112152 1.1214954
-0.26355141 0.084112152 1.1214954
-0.25794393 0.084112152 1.1214954
-0.25233644 0.084112152 1.1214954
-0.24444444 0.083333336 1.1111112
-0.23888889 0.083333336 1.1111112
-0.23333333 0.083333336 1.1111112
-0.22777778 0.083333336 1.1111112
-0.22222222 0.083333336 1.1111112
-0.21666667 0.083333336 1.1111112
-0.20917431 0.082568809 1.1009175
-0.20366973 0.082568809 1.1009175
-0.19816513 0.082568809 1.1009175
-0.19266056 0.082568809 1.1009175
-0.18715596 0.082568809 1.1009175
-0.18165137 0.082568809 1.1009175
-0.17614679 0.082568809 1.1009175
-0.17222223 0.083333336 1.1111112
-0.16513762 0.082568809 1.1009175
-0.15963303 0.082568809 1.1009175
-0.15555556 0.083333336 1.1111112
-0.15000001 0.083333336 1.1111112
-0.14444445 0.083333336 1.1111112
-0.1388889 0.083333336 1.1111112
-0.13333334 0.083333336 1.1111112
-0.12777779 0.083333336 1.1111112
-0.12222222 0.083333336 1.1111112
-0.11666667 0.083333336 1.1111112
-0.11111111 0.083333336 1.1111112
-0.10654206 0.084112152 1.1214954
-0.10093458 0.084112152 1.1214954
-0.096226417 0.084905662 1.1320754
-0.090566039 0.084905662 1.1320754
-0.085714288 0.085714288 1.1428572
-0.079999998 0.085714288 1.1428572
-0.075000003 0.086538464 1.1538461
-0.069230773 0.086538464 1.1538461
-0.063461542 0.086538464 1.1538461
-0.05882353 0.088235296 1.1764706
-0.053465348 0.089108914 1.1881188
-0.047524754 0.089108914 1.1881188
-0.04158416 0.089108914 1.1881188
-0.035643563 0.089108914 1.1881188
-0.019200001 0.071999997 0.95999998
-0.0144 0.071999997 0.95999998
-0.0095238099 0.071428575 0.95238096
-0.0047619049 0.071428575 0.95238096
0 0.071428575 0.95238096
0.0047619049 0.071428575 0.95238096
0.0094488189 0.070866145 0.94488192
0.014173228 0.070866145 0.94488192
0.018750001 0.0703125 0.9375
0.0234375 0.0703125 0.9375
0.028124999 0.0703125 0.9375
0.032558139 0.069767445 0.93023258
0.036923077 0.069230773 0.92307693
0.041538462 0.069230773 0.92307693
0.045801528 0.068702288 0.91603053
0.050381679 0.068702288 0.91603053
0.054545455 0.06818182 0.90909094
0.059090909 0.06818182 0.90909094
0.06268657 0.067164183 0.89552242
0.067164183 0.067164183 0.89552242
0.071641788 0.067164183 0.89552242
0.076119401 0.067164183 0.89552242
0.079411767 0.066176474 0.88235295
0.083211675 0.065693431 0.87591243
0.087591238 0.065693431 0.87591243
0.091970801 0.065693431 0.87591243
0.09565217 0.065217391 0.86956519
0.099280573 0.064748198 0.86330932
0.10359712 0.064748198 0.86330932
0.10714286 0.064285718 0.85714287
0.11142857 0.064285718 0.85714287
0.11571429 0.064285718 0.85714287
0.11914894 0.063829787 0.85106385
0.12340426 0.063829787 0.85106385
0.12676056 0.063380279 0.84507042
0.13098592 0.063380279 0.84507042
0.13521127 0.063380279 0.84507042
0.13943662 0.063380279 0.84507042
0.14265734 0.062937066 0.83916086
0.14685315 0.062937066 0.83916086
0.15000001 0.0625 0.83333331
0.15416667 0.0625 0.83333331
0.15833333 0.0625 0.83333331
0.16249999 0.0625 0.83333331
0.16666667 0.0625 0.83333331
0.17083333 0.0625 0.83333331
-0.36237624 0.095049508 1.1881188
-0.35643566 0.095049508 1.1881188
-0.35049504 0.095049508 1.1881188
-0.34455445 0.095049508 1.1881188
-0.33203885 0.09320388 1.1650486
-0.32307693 0.092307694 1.1538461
-0.31730768 0.092307694 1.1538461
-0.31153846 0.092307694 1.1538461
-0.30285713 0.09142857 1.1428572
-0.29714286 0.09142857 1.1428572
-0.29142857 0.09142857 1.1428572
-0.28301886 0.090566039 1.1320754
-0.2773585 0.090566039 1.1320754
-0.27169812 0.090566039 1.1320754
-0.26355141 0.089719623 1.1214954
-0.25794393 0.089719623 1.1214954
-0.25 0.088888891 1.1111112
-0.24444444 0.088888891 1.1111112
-0.23888889 0.088888891 1.1111112
-0.23333333 0.088888891 1.1111112
-0.22777778 0.088888891 1.1111112
-0.22222222 0.088888891 1.1111112
-0.21666667 0.088888891 1.1111112
-0.20917431 0.088073395 1.1009175
-0.20366973 0.088073395 1.1009175
-0.19816513 0.088073395 1.1009175
-0.19266056 0.088073395 1.1009175
-0.18715596 0.088073395 1.1009175
-0.18165137 0.088073395 1.1009175
-0.17614679 0.088073395 1.1009175
-0.1706422 0.088073395 1.1009175
-0.16513762 0.088073395 1.1009175
-0.15963303 0.088073395 1.1009175
-0.15412845 0.088073395 1.1009175
-0.14862385 0.088073395 1.1009175
-0.14311926 0.088073395 1.1009175
-0.1388889 0.088888891 1.1111112
-0.13333334 0.088888891 1.1111112
-0.12777779 0.088888891 1.1111112
-0.12222222 0.088888891 1.1111112
-0.11666667 0.088888891 1.1111112
-0.11111111 0.088888891 1.1111112
-0.10555556 0.088888891 1.1111112
-0.10093458 0.089719623 1.1214954
-0.095327102 0.089719623 1.1214954
-0.090566039 0.090566039 1.1320754
-0.084905662 0.090566039 1.1320754
-0.079999998 0.09142857 1.1428572
-0.074285716 0.09142857 1.1428572
-0.069230773 0.092307694 1.1538461
-0.063461542 0.092307694 1.1538461
-0.05882353 0.094117649 1.1764706
-0.053465348 0.095049508 1.1881188
-0.047524754 0.095049508 1.1881188
-0.04158416 0.095049508 1.1881188
-0.024 0.076800004 0.95999998
-0.019200001 0.076800004 0.95999998
-0.0144 0.076800004 0.95999998
-0.0096000005 0.076800004 0.95999998
-0.0048000002 0.076800004 0.95999998
0 0.076190479 0.95238096
0.0047619049 0.076190479 0.95238096
0.0094488189 0.075590551 0.94488192
0.014173228 0.075590551 0.94488192
0.018897638 0.075590551 0.94488192
0.0234375 0.075000003 0.9375
0.027906977 0.074418604 0.93023258
0.032307692 0.073846154 0.92307693
0.036923077 0.073846154 0.92307693
0.040909089 0.07272727 0.90909094
0.045454547 0.07272727 0.90909094
0.050000001 0.07272727 0.90909094
0.054135337 0.07218045 0.90225565
0.058646616 0.07218045 0.90225565
0.062222224 0.071111113 0.8888889
0.06666667 0.071111113 0.8888889
0.071111113 0.071111113 0.8888889
0.075555556 0.071111113 0.8888889
0.07883212 0.070072994 0.87591243
0.083211675 0.070072994 0.87591243
0.087591238 0.070072994 0.87591243
0.091304347 0.069565214 0.86956519
0.09565217 0.069565214 0.86956519
0.099280573 0.069064751 0.86330932
0.10359712 0.069064751 0.86330932
0.10714286 0.068571426 0.85714287
0.11142857 0.068571426 0.85714287
0.11571429 0.068571426 0.85714287
0.11914894 0.068085104 0.85106385
0.12340426 0.068085104 0.85106385
0.12676056 0.067605637 0.84507042
0.13098592 0.067605637 0.84507042
0.13426574 0.067132868 0.83916086
0.13846155 0.067132868 0.83916086
0.14166667 0.06666667 0.83333331
0.14583333 0.06666667 0.83333331
0.15000001 0.06666667 0.83333331
0.15416667 0.06666667 0.83333331
0.15833333 0.06666667 0.83333331
0.16249999 0.06666667 0.83333331
0.16438356 0.065753423 0.82191783
0.16849315 0.065753423 0.82191783
0.17260274 0.065753423 0.82191783
-0.37200001 0.102 1.2
-0.36237624 0.1009901 1.1881188
-0.35643566 0.1009901 1.1881188
-0.35049504 0.1009901 1.1881188
-0.34455445 0.1009901 1.1881188
-0.33203885 0.099029124 1.1650486
-0.3262136 0.099029124 1.1650486
-0.31730768 0.098076925 1.1538461
-0.30857143 0.09714286 1.1428572
-0.30285713 0.09714286 1.1428572
-0.29433963 0.096226417 1.1320754
-0.28867924 0.096226417 1.1320754
-0.28301886 0.096226417 1.1320754
-0.2773585 0.096226417 1.1320754
-0.26915887 0.095327102 1.1214954
-0.26355141 0.095327102 1.1214954
-0.25555557 0.094444446 1.1111112
-0.25 0.094444446 1.1111112
-0.24220183 0.093577981 1.1009175
-0.23669724 0.093577981 1.1009175
-0.23119266 0.093577981 1.1009175
-0.22568807 0.093577981 1.1009175
-0.22018349 0.093577981 1.1009175
-0.2146789 0.093577981 1.1009175
-0.20917431 0.093577981 1.1009175
-0.20366973 0.093577981 1.1009175
-0.19816513 0.093577981 1.1009175
-0.19266056 0.093577981 1.1009175
-0.18715596 0.093577981 1.1009175
-0.18165137 0.093577981 1.1009175
-0.17614679 0.093577981 1.1009175
-0.1706422 0.093577981 1.1009175
-0.16513762 0.093577981 1.1009175
-0.15963303 0.093577981 1.1009175
-0.15412845 0.093577981 1.1009175
-0.14862385 0.093577981 1.1009175
-0.14311926 0.093577981 1.1009175
-0.13761468 0.093577981 1.1009175
-0.13333334 0.094444446 1.1111112
-0.12777779 0.094444446 1.1111112
-0.12222222 0.094444446 1.1111112
-0.11666667 0.094444446 1.1111112
-0.11111111 0.094444446 1.1111112
-0.10555556 0.094444446 1.1111112
-0.10093458 0.095327102 1.1214954
-0.095327102 0.095327102 1.1214954
-0.089719623 0.095327102 1.1214954
-0.084112152 0.095327102 1.1214954
-0.079999998 0.09714286 1.1428572
-0.074285716 0.09714286 1.1428572
-0.069230773 0.098076925 1.1538461
-0.063461542 0.098076925 1.1538461
-0.05882353 0.1 1.1764706
-0.053465348 0.1009901 1.1881188
-0.047524754 0.1009901 1.1881188
-0.04158416 0.1009901 1.1881188
-0.029032258 0.082258068 0.96774191
-0.024193548 0.082258068 0.96774191
-0.019200001 0.081600003 0.95999998
-0.0144 0.081600003 0.95999998
-0.0096000005 0.081600003 0.95999998
-0.0048000002 0.081600003 0.95999998
0 0.080952384 0.95238096
0.0047619049 0.080952384 0.95238096
0.0095238099 0.080952384 0.95238096
0.0140625 0.079687499 0.9375
0.018750001 0.079687499 0.9375
0.023255814 0.079069771 0.93023258
0.027906977 0.079069771 0.93023258
0.032307692 0.078461535 0.92307693
0.036923077 0.078461535 0.92307693
0.040909089 0.077272728 0.90909094
0.045454547 0.077272728 0.90909094
0.049624059 0.076691732 0.90225565
0.054135337 0.076691732 0.90225565
0.058646616 0.076691732 0.90225565
0.062222224 0.075555556 0.8888889
0.06666667 0.075555556 0.8888889
0.071111113 0.075555556 0.8888889
0.074452557 0.074452557 0.87591243
0.07883212 0.074452557 0.87591243
0.083211675 0.074452557 0.87591243
0.086956523 0.073913045 0.86956519
0.091304347 0.073913045 0.86956519
0.094964027 0.073381297 0.86330932
0.099280573 0.073381297 0.86330932
0.10359712 0.073381297 0.86330932
0.10714286 0.072857141 0.85714287
0.1106383 0.072340429 0.85106385
0.11489362 0.072340429 0.85106385
0.11830986 0.071830988 0.84507042
0.12253521 0.071830988 0.84507042
0.12587413 0.07132867 0.83916086
0.13006993 0.07132867 0.83916086
0.13426574 0.07132867 0.83916086
0.13846155 0.07132867 0.83916086
0.14166667 0.070833333 0.83333331
0.14583333 0.070833333 0.83333331
0.15000001 0.070833333 0.83333331
0.15416667 0.070833333 0.83333331
0.15833333 0.070833333 0.83333331
0.16027397 0.069863014 0.82191783
0.16438356 0.069863014 0.82191783
0.16849315 0.069863014 0.82191783
0.17260274 0.069863014 0.82191783
-0.37200001 0.108 1.2
-0.366 0.108 1.2
-0.36000001 0.108 1.2
-0.35049504 0.1069307 1.1881188
-0.34117648 0.10588235 1.1764706
-0.33203885 0.10485437 1.1650486
-0.3262136 0.10485437 1.1650486
-0.31730768 0.10384616 1.1538461
-0.30857143 0.10285714 1.1428572
-0.30285713 0.10285714 1.1428572
-0.29433963 0.10188679 1.1320754
-0.28867924 0.10188679 1.1320754
-0.28301886 0.10188679 1.1320754
-0.27476636 0.10093458 1.1214954
-0.26915887 0.10093458 1.1214954
-0.26355141 0.10093458 1.1214954
-0.25555557 0.1 1.1111112
-0.25 0.1 1.1111112
-0.24220183 0.099082567 1.1009175
-0.23669724 0.099082567 1.1009175
-0.23119266 0.099082567 1.1009175
-0.22568807 0.099082567 1.1009175
-0.22018349 0.099082567 1.1009175
-0.2146789 0.099082567 1.1009175
-0.20917431 0.099082567 1.1009175
-0.20366973 0.099082567 1.1009175
-0.19816513 0.099082567 1.1009175
-0.19266056 0.099082567 1.1009175
-0.18715596 0.099082567 1.1009175
-0.18165137 0.099082567 1.1009175
-0.17614679 0.099082567 1.1009175
-0.16909091 0.098181821 1.0909091
-0.16363636 0.098181821 1.0909091
-0.15963303 0.099082567 1.1009175
-0.15412845 0.099082567 1.1009175
-0.14862385 0.099082567 1.1009175
-0.14311926 0.099082567 1.1009175
-0.13761468 0.099082567 1.1009175
-0.13211009 0.099082567 1.1009175
-0.12660551 0.099082567 1.1009175
-0.12222222 0.1 1.1111112
-0.11666667 0.1 1.1111112
-0.11009175 0.099082567 1.1009175
-0.10555556 0.1 1.1111112
-0.10093458 0.10093458 1.1214954
-0.095327102 0.10093458 1.1214954
-0.089719623 0.10093458 1.1214954
-0.084112152 0.10093458 1.1214954
-0.072413795 0.093103446 1.0344827
-0.06666667 0.092307694 1.0256411
-0.061538462 0.092307694 1.0256411
-0.056410257 0.092307694 1.0256411
-0.05882353 0.10588235 1.1764706
-0.053465348 0.1069307 1.1881188
-0.039344262 0.088524587 0.98360658
-0.033870969 0.087096773 0.96774191
-0.029032258 0.087096773 0.96774191
-0.024193548 0.087096773 0.96774191
-0.019200001 0.086400002 0.95999998
-0.0144 0.086400002 0.95999998
-0.0096000005 0.086400002 0.95999998
-0.0048000002 0.086400002 0.95999998
0 0.085714288 0.95238096
0.0047619049 0.085714288 0.95238096
0.0095238099 0.085714288 0.95238096
0.0140625 0.084375001 0.9375
0.018750001 0.084375001 0.9375
0.0234375 0.084375001 0.9375
0.027906977 0.08372093 0.93023258
0.032307692 0.083076924 0.92307693
0.036923077 0.083076924 0.92307693
0.040909089 0.081818178 0.90909094
0.045112781 0.081203006 0.90225565
0.049624059 0.081203006 0.90225565
0.054135337 0.081203006 0.90225565
0.057777777 0.079999998 0.8888889
0.062222224 0.079999998 0.8888889
0.066176474 0.079411767 0.88235295
0.070588239 0.079411767 0.88235295
0.074452557 0.07883212 0.87591243
0.07883212 0.07883212 0.87591243
0.083211675 0.07883212 0.87591243
0.086330935 0.077697843 0.86330932
0.091304347 0.078260869 0.86956519
0.094964027 0.077697843 0.86330932
0.098571427 0.077142857 0.85714287
0.10285714 0.077142857 0.85714287
0.10714286 0.077142857 0.85714287
0.1106383 0.076595746 0.85106385
0.11489362 0.076595746 0.85106385
0.11830986 0.076056339 0.84507042
0.12253521 0.076056339 0.84507042
0.12676056 0.076056339 0.84507042
0.13006993 0.075524479 0.83916086
0.13426574 0.075524479 0.83916086
0.13655172 0.074482761 0.82758623
0.14068966 0.074482761 0.82758623
0.14482759 0.074482761 0.82758623
0.14794521 0.073972605 0.82191783
0.1520548 0.073972605 0.82191783
0.15616438 0.073972605 0.82191783
0.16027397 0.073972605 0.82191783
0.16438356 0.073972605 0.82191783
0.16849315 0.073972605 0.82191783
0.17260274 0.073972605 0.82191783
0.17671233 0.073972605 0.82191783
-0.37799999 0.114 1.2
-0.37200001 0.114 1.2
-0.366 0.114 1.2
-0.36000001 0.114 1.2
-0.354 0.114 1.2
-0.34117648 0.11176471 1.1764706
-0.33203885 0.11067961 1.1650486
-0.32307693 0.10961539 1.1538461
-0.31730768 0.10961539 1.1538461
-0.30857143 0.10857143 1.1428572
-0.30285713 0.10857143 1.1428572
-0.29433963 0.10754717 1.1320754
-0.28867924 0.10754717 1.1320754
-0.28301886 0.10754717 1.1320754
-0.27476636 0.10654206 1.1214954
-0.26915887 0.10654206 1.1214954
-0.26355141 0.10654206 1.1214954
-0.25555557 0.10555556 1.1111112
-0.25 0.10555556 1.1111112
-0.24220183 0.10458715 1.1009175
-0.23669724 0.10458715 1.1009175
-0.23119266 0.10458715 1.1009175
-0.22568807 0.10458715 1.1009175
-0.22018349 0.10458715 1.1009175
-0.2146789 0.10458715 1.1009175
-0.20917431 0.10458715 1.1009175
-0.20366973 0.10458715 1.1009175
-0.19816513 0.10458715 1.1009175
-0.19266056 0.10458715 1.1009175
-0.18715596 0.10458715 1.1009175
-0.18165137 0.10458715 1.1009175
-0.17614679 0.10458715 1.1009175
-0.16909091 0.10363636 1.0909091
-0.16363636 0.10363636 1.0909091
-0.15818182 0.10363636 1.0909091
-0.15412845 0.10458715 1.1009175
-0.14862385 0.10458715 1.1009175
-0.14311926 0.10458715 1.1009175
-0.13636364 0.10363636 1.0909091
-0.13090909 0.10363636 1.0909091
-0.12660551 0.10458715 1.1009175
-0.12110092 0.10458715 1.1009175
-0.11559633 0.10458715 1.1009175
-0.11009175 0.10458715 1.1009175
-0.10458715 0.10458715 1.1009175
-0.099082567 0.10458715 1.1009175
-0.093577981 0.10458715 1.1009175
-0.088073395 0.10458715 1.1009175
-0.077586204 0.098275863 1.0344827
-0.072413795 0.098275863 1.0344827
-0.06666667 0.097435899 1.0256411
-0.061538462 0.097435899 1.0256411
-0.054545455 0.094214879 0.99173552
-0.049586777 0.094214879 0.99173552
-0.044262294 0.093442626 0.98360658
-0.039344262 0.093442626 0.98360658
-0.033870969 0.091935486 0.96774191
-0.029032258 0.091935486 0.96774191
-0.024193548 0.091935486 0.96774191
-0.019354839 0.091935486 0.96774191
-0.0144 0.091200002 0.95999998
-0.0096000005 0.091200002 0.95999998
-0.0047619049 0.090476193 0.95238096
0 0.090476193 0.95238096
0.0047619049 0.090476193 0.95238096
0.0093750004 0.089062497 0.9375
0.0140625 0.089062497 0.9375
0.018750001 0.089062497 0.9375
0.023255814 0.088372096 0.93023258
0.027692307 0.087692305 0.92307693
0.032307692 0.087692305 0.92307693
0.036923077 0.087692305 0.92307693
0.040298507 0.085074626 0.89552242
0.044776119 0.085074626 0.89552242
0.049253732 0.085074626 0.89552242
0.053333335 0.084444441 0.8888889
0.057777777 0.084444441 0.8888889
0.062222224 0.084444441 0.8888889
0.066176474 0.083823532 0.88235295
0.070588239 0.083823532 0.88235295
0.075000003 0.083823532 0.88235295
0.077697843 0.082014389 0.86330932
0.082014389 0.082014389 0.86330932
0.086330935 0.082014389 0.86330932
0.090647481 0.082014389 0.86330932
0.094285712 0.081428573 0.85714287
0.098571427 0.081428573 0.85714287
0.10212766 0.080851063 0.85106385
0.10638298 0.080851063 0.85106385
0.1106383 0.080851063 0.85106385
0.11489362 0.080851063 0.85106385
0.11830986 0.08028169 0.84507042
0.12253521 0.08028169 0.84507042
0.125 0.079166666 0.83333331
0.12916666 0.079166666 0.83333331
0.13241379 0.078620687 0.82758623
0.13655172 0.078620687 0.82758623
0.14068966 0.078620687 0.82758623
0.14482759 0.078620687 0.82758623
0.14794521 0.078082189 0.82191783
0.1520548 0.078082189 0.82191783
0.15616438 0.078082189 0.82191783
0.16027397 0.078082189 0.82191783
0.16438356 0.078082189 0.82191783
0.16849315 0.078082189 0.82191783
0.17260274 0.078082189 0.82191783
0.18243243 0.07702703 0.8108108
-0.39587629 0.12371134 1.2371134
-0.38969073 0.12371134 1.2371134
-0.38350517 0.12371134 1.2371134
-0.366 0.12 1.2
-0.36000001 0.12 1.2
-0.354 0.12 1.2
-0.34117648 0.11764706 1.1764706
-0.33203885 0.11650486 1.1650486
-0.32307693 0.11538462 1.1538461
-0.31730768 0.11538462 1.1538461
-0.31153846 0.11538462 1.1538461
-0.30285713 0.11428571 1.1428572
-0.29714286 0.11428571 1.1428572
-0.28867924 0.11320755 1.1320754
-0.28037384 0.11214953 1.1214954
-0.27476636 0.11214953 1.1214954
-0.26915887 0.11214953 1.1214954
-0.26355141 0.11214953 1.1214954
-0.25555557 0.11111111 1.1111112
-0.25 0.11111111 1.1111112
-0.24220183 0.11009175 1.1009175
-0.23669724 0.11009175 1.1009175
-0.23119266 0.11009175 1.1009175
-0.22568807 0.11009175 1.1009175
-0.22018349 0.11009175 1.1009175
-0.2146789 0.11009175 1.1009175
-0.20917431 0.11009175 1.1009175
-0.20366973 0.11009175 1.1009175
-0.19636364 0.10909091 1.0909091
-0.19090909 0.10909091 1.0909091
-0.18545455 0.10909091 1.0909091
-0.18000001 0.10909091 1.0909091
-0.17454545 0.10909091 1.0909091
-0.16909091 0.10909091 1.0909091
-0.16363636 0.10909091 1.0909091
-0.15818182 0.10909091 1.0909091
-0.15272728 0.10909091 1.0909091
-0.14594595 0.10810811 1.081081
-0.14311926 0.11009175 1.1009175
-0.13636364 0.10909091 1.0909091
-0.13090909 0.10909091 1.0909091
-0.12545455 0.10909091 1.0909091
-0.12 0.10909091 1.0909091
-0.11454546 0.10909091 1.0909091
-0.11009175 0.11009175 1.1009175
-0.10458715 0.11009175 1.1009175
-0.099082567 0.11009175 1.1009175
-0.093577981 0.11009175 1.1009175
-0.088073395 0.11009175 1.1009175
-0.077586204 0.10344828 1.0344827
-0.072413795 0.10344828 1.0344827
-0.06666667 0.1025641 1.0256411
-0.061538462 0.1025641 1.0256411
-0.054545455 0.099173553 0.99173552
-0.049586777 0.099173553 0.99173552
-0.044262294 0.098360658 0.98360658
-0.039344262 0.098360658 0.98360658
-0.034146342 0.097560972 0.97560978
-0.029032258 0.096774191 0.96774191
-0.024193548 0.096774191 0.96774191
-0.019354839 0.096774191 0.96774191
-0.0144 0.096000001 0.95999998
-0.0096000005 0.096000001 0.95999998
-0.0047619049 0.095238097 0.95238096
0 0.095238097 0.95238096
0.0047619049 0.095238097 0.95238096
0.0093750004 0.09375 0.9375
0.0140625 0.09375 0.9375
0.018604651 0.093023255 0.93023258
0.023255814 0.093023255 0.93023258
0.027692307 0.092307694 0.92307693
0.031818181 0.090909094 0.90909094
0.036363635 0.090909094 0.90909094
0.040298507 0.089552239 0.89552242
0.044776119 0.089552239 0.89552242
0.049253732 0.089552239 0.89552242
0.053731345 0.089552239 0.89552242
0.057777777 0.088888891 0.8888889
0.061764706 0.088235296 0.88235295
0.066176474 0.088235296 0.88235295
0.070588239 0.088235296 0.88235295
0.073913045 0.086956523 0.86956519
0.077697843 0.086330935 0.86330932
0.082014389 0.086330935 0.86330932
0.086330935 0.086330935 0.86330932
0.090647481 0.086330935 0.86330932
0.093617022 0.08510638 0.85106385
0.097872339 0.08510638 0.85106385
0.10212766 0.08510638 0.85106385
0.10638298 0.08510638 0.85106385
0.10985915 0.084507041 0.84507042
0.1125 0.083333336 0.83333331
0.11748252 0.083916083 0.83916086
0.12167832 0.083916083 0.83916086
0.125 0.083333336 0.83333331
0.12916666 0.083333336 0.83333331
0.13241379 0.08275862 0.82758623
0.13655172 0.08275862 0.82758623
0.14068966 0.08275862 0.82758623
0.14383562 0.08219178 0.82191783
0.14794521 0.08219178 0.82191783
0.1520548 0.08219178 0.82191783
0.15510204 0.081632651 0.81632656
0.15918367 0.081632651 0.81632656
0.16438356 0.08219178 0.82191783
0.16849315 0.08219178 0.82191783
0.17260274 0.08219178 0.82191783
0.17432432 0.081081077 0.8108108
0.17837837 0.081081077 0.8108108
0.18243243 0.081081077 0.8108108
0.18648648 0.081081077 0.8108108
0.19054054 0.081081077 0.8108108
-0.39587629 0.12989691 1.2371134
-0.38969073 0.12989691 1.2371134
-0.38350517 0.12989691 1.2371134
-0.366 0.126 1.2
-0.36000001 0.126 1.2
-0.354 0.126 1.2
-0.33786407 0.1223301 1.1650486
-0.33203885 0.1223301 1.1650486
-0.32307693 0.12115385 1.1538461
-0.31730768 0.12115385 1.1538461
-0.30857143 0.12 1.1428572
-0.30285713 0.12 1.1428572
-0.29433963 0.11886793 1.1320754
-0.28867924 0.11886793 1.1320754
-0.28037384 0.11775701 1.1214954
-0.27476636 0.11775701 1.1214954
-0.26915887 0.11775701 1.1214954
-0.26111111 0.11666667 1.1111112
-0.25555557 0.11666667 1.1111112
-0.25 0.11666667 1.1111112
-0.24220183 0.11559633 1.1009175
-0.23669724 0.11559633 1.1009175
-0.23119266 0.11559633 1.1009175
-0.22568807 0.11559633 1.1009175
-0.22018349 0.11559633 1.1009175
-0.2146789 0.11559633 1.1009175
-0.20917431 0.11559633 1.1009175
-0.20181818 0.11454546 1.0909091
-0.19636364 0.11454546 1.0909091
-0.19090909 0.11454546 1.0909091
-0.18545455 0.11454546 1.0909091
-0.18000001 0.11454546 1.0909091
-0.17454545 0.11454546 1.0909091
-0.16909091 0.11454546 1.0909091
-0.16363636 0.11454546 1.0909091
-0.15818182 0.11454546 1.0909091
-0.15135135 0.11351351 1.081081
-0.14594595 0.11351351 1.081081
-0.14054054 0.11351351 1.081081
-0.13513513 0.11351351 1.081081
-0.13090909 0.11454546 1.0909091
-0.12545455 0.11454546 1.0909091
-0.12 0.11454546 1.0909091
-0.11454546 0.11454546 1.0909091
-0.10909091 0.11454546 1.0909091
-0.10458715 0.11559633 1.1009175
-0.099082567 0.11559633 1.1009175
-0.093577981 0.11559633 1.1009175
-0.08275862 0.10862069 1.0344827
-0.077586204 0.10862069 1.0344827
-0.072413795 0.10862069 1.0344827
-0.06666667 0.10769231 1.0256411
-0.059504133 0.10413224 0.99173552
-0.054545455 0.10413224 0.99173552
-0.049586777 0.10413224 0.99173552
-0.044262294 0.10327869 0.98360658
-0.039344262 0.10327869 0.98360658
-0.034146342 0.10243902 0.97560978
-0.029268293 0.10243902 0.97560978
-0.024193548 0.1016129 0.96774191
-0.019354839 0.1016129 0.96774191
-0.0144 0.1008 0.95999998
-0.0096000005 0.1008 0.95999998
-0.0047619049 0.1 0.95238096
0 0.1 0.95238096
0.0047244094 0.099212602 0.94488192
0.0093750004 0.098437503 0.9375
0.0140625 0.098437503 0.9375
0.018604651 0.097674422 0.93023258
0.023255814 0.097674422 0.93023258
0.027272727 0.095454544 0.90909094
0.031818181 0.095454544 0.90909094
0.036363635 0.095454544 0.90909094
0.040298507 0.094029851 0.89552242
0.044776119 0.094029851 0.89552242
0.049253732 0.094029851 0.89552242
0.053333335 0.093333334 0.8888889
0.057777777 0.093333334 0.8888889
0.061764706 0.092647061 0.88235295
0.065693431 0.091970801 0.87591243
0.069565214 0.091304347 0.86956519
0.073913045 0.091304347 0.86956519
0.077697843 0.090647481 0.86330932
0.082014389 0.090647481 0.86330932
0.085714288 0.090000004 0.85714287
0.089361705 0.089361705 0.85106385
0.093617022 0.089361705 0.85106385
0.097872339 0.089361705 0.85106385
0.10212766 0.089361705 0.85106385
0.1056338 0.088732392 0.84507042
0.10985915 0.088732392 0.84507042
0.1125 0.087499999 0.83333331
0.11666667 0.087499999 0.83333331
0.12167832 0.088111885 0.83916086
0.125 0.087499999 0.83333331
0.12916666 0.087499999 0.83333331
0.13241379 0.086896554 0.82758623
0.13655172 0.086896554 0.82758623
0.13972603 0.086301371 0.82191783
0.14383562 0.086301371 0.82191783
0.14693877 0.085714288 0.81632656
0.15102041 0.085714288 0.81632656
0.15510204 0.085714288 0.81632656
0.15918367 0.085714288 0.81632656
0.1632653 0.085714288 0.81632656
0.16510066 0.084563762 0.80536914
0.16912752 0.084563762 0.80536914
0.17432432 0.085135132 0.8108108
0.17837837 0.085135132 0.8108108
0.18243243 0.085135132 0.8108108
0.18648648 0.085135132 0.8108108
0.19054054 0.085135132 0.8108108
-0.41249999 0.1375 1.25
-0.40625 0.1375 1.25
-0.39587629 0.13608247 1.2371134
-0.38969073 0.13608247 1.2371134
-0.38350517 0.13608247 1.2371134
-0.37731957 0.13608247 1.2371134
-0.36000001 0.132 1.2
-0.35049504 0.13069306 1.1881188
-0.34117648 0.12941177 1.1764706
-0.33203885 0.12815534 1.1650486
-0.32307693 0.12692308 1.1538461
-0.31730768 0.12692308 1.1538461
-0.30857143 0.12571429 1.1428572
-0.30000001 0.1245283 1.1320754
-0.29433963 0.1245283 1.1320754
-0.28867924 0.1245283 1.1320754
-0.28301886 0.1245283 1.1320754
-0.27476636 0.12336449 1.1214954
-0.26666668 0.12222222 1.1111112
-0.26111111 0.12222222 1.1111112
-0.25555557 0.12222222 1.1111112
-0.25 0.12222222 1.1111112
-0.24220183 0.12110092 1.1009175
-0.23669724 0.12110092 1.1009175
-0.23119266 0.12110092 1.1009175
-0.22568807 0.12110092 1.1009175
-0.21818182 0.12 1.0909091
-0.21272728 0.12 1.0909091
-0.20727272 0.12 1.0909091
-0.20181818 0.12 1.0909091
-0.19636364 0.12 1.0909091
