# .PCD v0.7 - Point Cloud Data file format
VERSION 0.7
FIELDS x y z
SIZE 4 4 4
TYPE F F F
COUNT 1 1 1
WIDTH 1407
HEIGHT 1
VIEWPOINT 0 0 0 1 0 0 0
POINTS 1407
DATA ascii
0.16909091 -0.16909091 1.0909091
0.17777778 -0.17222223 1.1111112
0.18504673 -0.17383178 1.1214954
0.1906542 -0.17383178 1.1214954
0.1981132 -0.17547169 1.1320754
0.20377359 -0.17547169 1.1320754
0.21764706 -0.18235295 1.1764706
0.22352941 -0.18235295 1.1764706
-0.2859813 -0.1682243 1.1214954
-0.28037384 -0.1682243 1.1214954
-0.27476636 -0.1682243 1.1214954
-0.26915887 -0.1682243 1.1214954
-0.26111111 -0.16666667 1.1111112
-0.25555557 -0.16666667 1.1111112
-0.24770643 -0.16513762 1.1009175
-0.24220183 -0.16513762 1.1009175
-0.23669724 -0.16513762 1.1009175
-0.22909091 -0.16363636 1.0909091
-0.22363636 -0.16363636 1.0909091
-0.21818182 -0.16363636 1.0909091
-0.21272728 -0.16363636 1.0909091
-0.20727272 -0.16363636 1.0909091
-0.20181818 -0.16363636 1.0909091
-0.19636364 -0.16363636 1.0909091
-0.19090909 -0.16363636 1.0909091
-0.18378378 -0.16216215 1.081081
-0.17837837 -0.16216215 1.081081
-0.17297298 -0.16216215 1.081081
-0.16607143 -0.16071428 1.0714285
-0.16071428 -0.16071428 1.0714285
-0.15263158 -0.15789473 1.0526316
-0.14608696 -0.15652174 1.0434783
-0.13846155 -0.15384616 1.0256411
-0.12892562 -0.14876033 0.99173552
-0.12396694 -0.14876033 0.99173552
-0.11900827 -0.14876033 0.99173552
-0.11219512 -0.14634146 0.97560978
-0.10731708 -0.14634146 0.97560978
-0.10243902 -0.14634146 0.97560978
-0.096774191 -0.14516129 0.96774191
-0.091200002 -0.14399999 0.95999998
-0.085714288 -0.14285715 0.95238096
-0.080952384 -0.14285715 0.95238096
-0.076190479 -0.14285715 0.95238096
-0.071428575 -0.14285715 0.95238096
-0.066141732 -0.14173229 0.94488192
-0.061417323 -0.14173229 0.94488192
-0.056249999 -0.140625 0.9375
-0.051562499 -0.140625 0.9375
-0.046875 -0.140625 0.9375
-0.042187501 -0.140625 0.9375
-0.037500001 -0.140625 0.9375
-0.032812499 -0.140625 0.9375
-0.027906977 -0.13953489 0.93023258
-0.023255814 -0.13953489 0.93023258
-0.018604651 -0.13953489 0.93023258
-0.013953488 -0.13953489 0.93023258
-0.0093023255 -0.13953489 0.93023258
-0.0046511628 -0.13953489 0.93023258
0 -0.13953489 0.93023258
0.0046511628 -0.13953489 0.93023258
0.0093023255 -0.13953489 0.93023258
0.013953488 -0.13953489 0.93023258
0.018604651 -0.13953489 0.93023258
0.023255814 -0.13953489 0.93023258
0.027692307 -0.13846155 0.92307693
0.032307692 -0.13846155 0.92307693
0.036641221 -0.13740458 0.91603053
0.041860465 -0.13953489 0.93023258
0.046511628 -0.13953489 0.93023258
0.051562499 -0.140625 0.9375
0.056249999 -0.140625 0.9375
0.060465116 -0.13953489 0.93023258
0.066141732 -0.14173229 0.94488192
0.070866145 -0.14173229 0.94488192
0.075590551 -0.14173229 0.94488192
0.080952384 -0.14285715 0.95238096
0.086400002 -0.14399999 0.95999998
0.091200002 -0.14399999 0.95999998
0.096000001 -0.14399999 0.95999998
0.1008 -0.14399999 0.95999998
0.1137931 -0.15517241 1.0344827
0.11896551 -0.15517241 1.0344827
0.12631579 -0.15789473 1.0526316
0.13157895 -0.15789473 1.0526316
0.1368421 -0.15789473 1.0526316
0.14210527 -0.15789473 1.0526316
0.15135135 -0.16216215 1.081081
0.15818182 -0.16363636 1.0909091
0.16363636 -0.16363636 1.0909091
0.16909091 -0.16363636 1.0909091
0.17454545 -0.16363636 1.0909091
0.18504673 -0.1682243 1.1214954
0.1906542 -0.1682243 1.1214954
0.1981132 -0.16981132 1.1320754
0.20377359 -0.16981132 1.1320754
0.20943396 -0.16981132 1.1320754
0.22135922 -0.17475729 1.1650486
0.22718446 -0.17475729 1.1650486
-0.28037384 -0.16261682 1.1214954
-0.27476636 -0.16261682 1.1214954
-0.26915887 -0.16261682 1.1214954
-0.26111111 -0.16111112 1.1111112
-0.25555557 -0.16111112 1.1111112
-0.24770643 -0.15963303 1.1009175
-0.24220183 -0.15963303 1.1009175
-0.23454545 -0.15818182 1.0909091
-0.22909091 -0.15818182 1.0909091
-0.22363636 -0.15818182 1.0909091
-0.21818182 -0.15818182 1.0909091
-0.21272728 -0.15818182 1.0909091
-0.20727272 -0.15818182 1.0909091
-0.20181818 -0.15818182 1.0909091
-0.19636364 -0.15818182 1.0909091
-0.19090909 -0.15818182 1.0909091
-0.18378378 -0.15675676 1.081081
-0.17837837 -0.15675676 1.081081
-0.17297298 -0.15675676 1.081081
-0.16607143 -0.15535714 1.0714285
-0.16071428 -0.15535714 1.0714285
-0.15263158 -0.15263158 1.0526316
-0.14736842 -0.15263158 1.0526316
-0.13613446 -0.14621849 1.0084034
-0.12892562 -0.14380166 0.99173552
-0.12396694 -0.14380166 0.99173552
-0.11707317 -0.14146341 0.97560978
-0.11219512 -0.14146341 0.97560978
-0.10731708 -0.14146341 0.97560978
-0.10243902 -0.14146341 0.97560978
-0.096000001 -0.1392 0.95999998
-0.091200002 -0.1392 0.95999998
-0.086400002 -0.1392 0.95999998
-0.080952384 -0.13809524 0.95238096
-0.076190479 -0.13809524 0.95238096
-0.070866145 -0.13700788 0.94488192
-0.066141732 -0.13700788 0.94488192
-0.061417323 -0.13700788 0.94488192
-0.056249999 -0.1359375 0.9375
-0.051562499 -0.1359375 0.9375
-0.046511628 -0.13488372 0.93023258
-0.042187501 -0.1359375 0.9375
-0.037500001 -0.1359375 0.9375
-0.032558139 -0.13488372 0.93023258
-0.027906977 -0.13488372 0.93023258
-0.023255814 -0.13488372 0.93023258
-0.018604651 -0.13488372 0.93023258
-0.013953488 -0.13488372 0.93023258
-0.0092307692 -0.13384615 0.92307693
-0.0046153846 -0.13384615 0.92307693
0 -0.13282442 0.91603053
0.0045801527 -0.13282442 0.91603053
0.0091603054 -0.13282442 0.91603053
0.013740458 -0.13282442 0.91603053
0.018320611 -0.13282442 0.91603053
0.023076924 -0.13384615 0.92307693
0.027692307 -0.13384615 0.92307693
0.032307692 -0.13384615 0.92307693
0.036641221 -0.13282442 0.91603053
0.041538462 -0.13384615 0.92307693
0.046153847 -0.13384615 0.92307693
0.050769232 -0.13384615 0.92307693
0.055813953 -0.13488372 0.93023258
0.060465116 -0.13488372 0.93023258
0.065116279 -0.13488372 0.93023258
0.070866145 -0.13700788 0.94488192
0.075590551 -0.13700788 0.94488192
0.080952384 -0.13809524 0.95238096
0.085714288 -0.13809524 0.95238096
0.091200002 -0.1392 0.95999998
0.096000001 -0.1392 0.95999998
0.10862069 -0.15000001 1.0344827
0.1137931 -0.15000001 1.0344827
0.11896551 -0.15000001 1.0344827
0.12521739 -0.15130435 1.0434783
0.13157895 -0.15263158 1.0526316
0.1368421 -0.15263158 1.0526316
0.14210527 -0.15263158 1.0526316
0.14736842 -0.15263158 1.0526316
0.15535714 -0.15535714 1.0714285
0.16363636 -0.15818182 1.0909091
0.16909091 -0.15818182 1.0909091
0.17454545 -0.15818182 1.0909091
0.18000001 -0.15818182 1.0909091
0.1906542 -0.16261682 1.1214954
0.1981132 -0.16415094 1.1320754
0.20769231 -0.16730769 1.1538461
0.21553399 -0.16893204 1.1650486
0.22135922 -0.16893204 1.1650486
0.22718446 -0.16893204 1.1650486
-0.28037384 -0.15700935 1.1214954
-0.27476636 -0.15700935 1.1214954
-0.26915887 -0.15700935 1.1214954
-0.26111111 -0.15555556 1.1111112
-0.25555557 -0.15555556 1.1111112
-0.24770643 -0.15412845 1.1009175
-0.24220183 -0.15412845 1.1009175
-0.23669724 -0.15412845 1.1009175
-0.22909091 -0.15272728 1.0909091
-0.22363636 -0.15272728 1.0909091
-0.21818182 -0.15272728 1.0909091
-0.21272728 -0.15272728 1.0909091
-0.20727272 -0.15272728 1.0909091
-0.20181818 -0.15272728 1.0909091
-0.19636364 -0.15272728 1.0909091
-0.1891892 -0.15135135 1.081081
-0.18378378 -0.15135135 1.081081
-0.17837837 -0.15135135 1.081081
-0.17297298 -0.15135135 1.081081
-0.16607143 -0.15000001 1.0714285
-0.16071428 -0.15000001 1.0714285
-0.15263158 -0.14736842 1.0526316
-0.14736842 -0.14736842 1.0526316
-0.13613446 -0.14117648 1.0084034
-0.13109244 -0.14117648 1.0084034
-0.12396694 -0.13884297 0.99173552
-0.11707317 -0.13658537 0.97560978
-0.11219512 -0.13658537 0.97560978
-0.10731708 -0.13658537 0.97560978
-0.1 -0.13333334 0.95238096
-0.095238097 -0.13333334 0.95238096
-0.091200002 -0.1344 0.95999998
-0.086400002 -0.1344 0.95999998
-0.080314964 -0.13228346 0.94488192
-0.075590551 -0.13228346 0.94488192
-0.070866145 -0.13228346 0.94488192
-0.066141732 -0.13228346 0.94488192
-0.060465116 -0.13023256 0.93023258
-0.056249999 -0.13124999 0.9375
-0.051562499 -0.13124999 0.9375
-0.046511628 -0.13023256 0.93023258
-0.041860465 -0.13023256 0.93023258
-0.037209302 -0.13023256 0.93023258
-0.032558139 -0.13023256 0.93023258
-0.027692307 -0.12923077 0.92307693
-0.023076924 -0.12923077 0.92307693
-0.018461538 -0.12923077 0.92307693
-0.013846153 -0.12923077 0.92307693
-0.0092307692 -0.12923077 0.92307693
-0.0046153846 -0.12923077 0.92307693
0 -0.12824428 0.91603053
0.0045801527 -0.12824428 0.91603053
0.0091603054 -0.12824428 0.91603053
0.013740458 -0.12824428 0.91603053
0.018320611 -0.12824428 0.91603053
0.022900764 -0.12824428 0.91603053
0.027692307 -0.12923077 0.92307693
0.03206107 -0.12824428 0.91603053
0.036641221 -0.12824428 0.91603053
0.041221373 -0.12824428 0.91603053
0.046153847 -0.12923077 0.92307693
0.050769232 -0.12923077 0.92307693
0.055813953 -0.13023256 0.93023258
0.060465116 -0.13023256 0.93023258
0.065116279 -0.13023256 0.93023258
0.0703125 -0.13124999 0.9375
0.075000003 -0.13124999 0.9375
0.080314964 -0.13228346 0.94488192
0.08503937 -0.13228346 0.94488192
0.089763783 -0.13228346 0.94488192
0.096000001 -0.1344 0.95999998
0.10862069 -0.14482759 1.0344827
0.1137931 -0.14482759 1.0344827
0.11896551 -0.14482759 1.0344827
0.12521739 -0.14608696 1.0434783
0.13043478 -0.14608696 1.0434783
0.13565217 -0.14608696 1.0434783
0.14210527 -0.14736842 1.0526316
0.14736842 -0.14736842 1.0526316
0.15535714 -0.15000001 1.0714285
0.16071428 -0.15000001 1.0714285
0.16756757 -0.15135135 1.081081
0.17454545 -0.15272728 1.0909091
0.18165137 -0.15412845 1.1009175
0.18715596 -0.15412845 1.1009175
0.1981132 -0.15849057 1.1320754
0.20769231 -0.16153847 1.1538461
0.21553399 -0.1631068 1.1650486
0.22135922 -0.1631068 1.1650486
0.22718446 -0.1631068 1.1650486
0.23300971 -0.1631068 1.1650486
-0.26422018 -0.14862385 1.1009175
-0.2587156 -0.14862385 1.1009175
-0.25321102 -0.14862385 1.1009175
-0.24770643 -0.14862385 1.1009175
-0.24220183 -0.14862385 1.1009175
-0.23669724 -0.14862385 1.1009175
-0.22909091 -0.14727272 1.0909091
-0.22363636 -0.14727272 1.0909091
-0.21818182 -0.14727272 1.0909091
-0.21272728 -0.14727272 1.0909091
-0.20727272 -0.14727272 1.0909091
-0.20181818 -0.14727272 1.0909091
-0.19636364 -0.14727272 1.0909091
-0.1891892 -0.14594595 1.081081
-0.18378378 -0.14594595 1.081081
-0.17837837 -0.14594595 1.081081
-0.17142858 -0.14464286 1.0714285
-0.16607143 -0.14464286 1.0714285
-0.16071428 -0.14464286 1.0714285
-0.15263158 -0.14210527 1.0526316
-0.14358975 -0.13846155 1.0256411
-0.13613446 -0.13613446 1.0084034
-0.13109244 -0.13613446 1.0084034
-0.12605043 -0.13613446 1.0084034
-0.11612903 -0.13064516 0.96774191
-0.11129032 -0.13064516 0.96774191
-0.10645162 -0.13064516 0.96774191
-0.1 -0.12857144 0.95238096
-0.095238097 -0.12857144 0.95238096
-0.090476193 -0.12857144 0.95238096
-0.08503937 -0.12755905 0.94488192
-0.080314964 -0.12755905 0.94488192
-0.075590551 -0.12755905 0.94488192
-0.070866145 -0.12755905 0.94488192
-0.065116279 -0.1255814 0.93023258
-0.060465116 -0.1255814 0.93023258
-0.055813953 -0.1255814 0.93023258
-0.051162791 -0.1255814 0.93023258
-0.046511628 -0.1255814 0.93023258
-0.041860465 -0.1255814 0.93023258
-0.037209302 -0.1255814 0.93023258
-0.032307692 -0.12461539 0.92307693
-0.027692307 -0.12461539 0.92307693
-0.023076924 -0.12461539 0.92307693
-0.018461538 -0.12461539 0.92307693
-0.013846153 -0.12461539 0.92307693
-0.0092307692 -0.12461539 0.92307693
-0.0045801527 -0.12366413 0.91603053
0 -0.12366413 0.91603053
0.0045801527 -0.12366413 0.91603053
0.0091603054 -0.12366413 0.91603053
0.013740458 -0.12366413 0.91603053
0.018320611 -0.12366413 0.91603053
0.022900764 -0.12366413 0.91603053
0.027480915 -0.12366413 0.91603053
0.03206107 -0.12366413 0.91603053
0.036641221 -0.12366413 0.91603053
0.041221373 -0.12366413 0.91603053
0.045801528 -0.12366413 0.91603053
0.050381679 -0.12366413 0.91603053
0.05496183 -0.12366413 0.91603053
0.060465116 -0.1255814 0.93023258
0.065116279 -0.1255814 0.93023258
0.069767445 -0.1255814 0.93023258
0.075000003 -0.12656251 0.9375
0.080314964 -0.12755905 0.94488192
0.084375001 -0.12656251 0.9375
0.089062497 -0.12656251 0.9375
0.095238097 -0.12857144 0.95238096
0.1 -0.12857144 0.95238096
0.10476191 -0.12857144 0.95238096
0.11896551 -0.13965517 1.0344827
0.12521739 -0.14086956 1.0434783
0.13043478 -0.14086956 1.0434783
0.13565217 -0.14086956 1.0434783
0.14210527 -0.14210527 1.0526316
0.14736842 -0.14210527 1.0526316
0.15535714 -0.14464286 1.0714285
0.16071428 -0.14464286 1.0714285
0.16756757 -0.14594595 1.081081
0.17297298 -0.14594595 1.081081
0.18165137 -0.14862385 1.1009175
0.18715596 -0.14862385 1.1009175
0.1981132 -0.15283018 1.1320754
0.20769231 -0.15576923 1.1538461
0.21346153 -0.15576923 1.1538461
0.21923077 -0.15576923 1.1538461
0.22499999 -0.15576923 1.1538461
0.23076923 -0.15576923 1.1538461
-0.28037384 -0.14579439 1.1214954
-0.27476636 -0.14579439 1.1214954
-0.26422018 -0.14311926 1.1009175
-0.2587156 -0.14311926 1.1009175
-0.25321102 -0.14311926 1.1009175
-0.24770643 -0.14311926 1.1009175
-0.24220183 -0.14311926 1.1009175
-0.23669724 -0.14311926 1.1009175
-0.22909091 -0.14181818 1.0909091
-0.22363636 -0.14181818 1.0909091
-0.21818182 -0.14181818 1.0909091
-0.21272728 -0.14181818 1.0909091
-0.20727272 -0.14181818 1.0909091
-0.20181818 -0.14181818 1.0909091
-0.19459459 -0.14054054 1.081081
-0.1891892 -0.14054054 1.081081
-0.18214285 -0.13928571 1.0714285
-0.17678571 -0.13928571 1.0714285
-0.17142858 -0.13928571 1.0714285
-0.16607143 -0.13928571 1.0714285
-0.15652174 -0.13565217 1.0434783
-0.15130435 -0.13565217 1.0434783
-0.14358975 -0.13333334 1.0256411
-0.13846155 -0.13333334 1.0256411
-0.13109244 -0.13109244 1.0084034
-0.12096774 -0.12580645 0.96774191
-0.11612903 -0.12580645 0.96774191
-0.11129032 -0.12580645 0.96774191
-0.10645162 -0.12580645 0.96774191
-0.1016129 -0.12580645 0.96774191
-0.095238097 -0.12380952 0.95238096
-0.089763783 -0.12283465 0.94488192
-0.08503937 -0.12283465 0.94488192
-0.080314964 -0.12283465 0.94488192
-0.075590551 -0.12283465 0.94488192
-0.069767445 -0.12093023 0.93023258
-0.065116279 -0.12093023 0.93023258
-0.060465116 -0.12093023 0.93023258
-0.055813953 -0.12093023 0.93023258
-0.051162791 -0.12093023 0.93023258
-0.046511628 -0.12093023 0.93023258
-0.041538462 -0.12 0.92307693
-0.036923077 -0.12 0.92307693
-0.032307692 -0.12 0.92307693
-0.027480915 -0.11908397 0.91603053
-0.022900764 -0.11908397 0.91603053
-0.018320611 -0.11908397 0.91603053
-0.013740458 -0.11908397 0.91603053
-0.0091603054 -0.11908397 0.91603053
-0.0045801527 -0.11908397 0.91603053
0 -0.11908397 0.91603053
0.0045454544 -0.11818182 0.90909094
0.0090909088 -0.11818182 0.90909094
0.013636364 -0.11818182 0.90909094
0.018320611 -0.11908397 0.91603053
0.022900764 -0.11908397 0.91603053
0.027272727 -0.11818182 0.90909094
0.03206107 -0.11908397 0.91603053
0.036641221 -0.11908397 0.91603053
0.041221373 -0.11908397 0.91603053
0.045801528 -0.11908397 0.91603053
0.050381679 -0.11908397 0.91603053
0.05496183 -0.11908397 0.91603053
0.059999999 -0.12 0.92307693
0.064615384 -0.12 0.92307693
0.069767445 -0.12093023 0.93023258
0.074418604 -0.12093023 0.93023258
0.079069771 -0.12093023 0.93023258
0.084375001 -0.121875 0.9375
0.089062497 -0.121875 0.9375
0.095238097 -0.12380952 0.95238096
0.1 -0.12380952 0.95238096
0.10476191 -0.12380952 0.95238096
0.11896551 -0.13448276 1.0344827
0.12413793 -0.13448276 1.0344827
0.13043478 -0.13565217 1.0434783
0.13565217 -0.13565217 1.0434783
0.14210527 -0.1368421 1.0526316
0.14736842 -0.1368421 1.0526316
0.15263158 -0.1368421 1.0526316
0.16071428 -0.13928571 1.0714285
0.16756757 -0.14054054 1.081081
0.17454545 -0.14181818 1.0909091
0.18000001 -0.14181818 1.0909091
0.18545455 -0.14181818 1.0909091
0.2 -0.14857143 1.1428572
0.20571429 -0.14857143 1.1428572
0.21346153 -0.15000001 1.1538461
0.21923077 -0.15000001 1.1538461
0.22499999 -0.15000001 1.1538461
0.23076923 -0.15000001 1.1538461
-0.28037384 -0.14018692 1.1214954
-0.27476636 -0.14018692 1.1214954
-0.26915887 -0.14018692 1.1214954
-0.26111111 -0.1388889 1.1111112
-0.25321102 -0.13761468 1.1009175
-0.24770643 -0.13761468 1.1009175
-0.24220183 -0.13761468 1.1009175
-0.23454545 -0.13636364 1.0909091
-0.22909091 -0.13636364 1.0909091
-0.22363636 -0.13636364 1.0909091
-0.21818182 -0.13636364 1.0909091
-0.21272728 -0.13636364 1.0909091
-0.2054054 -0.13513513 1.081081
-0.2 -0.13513513 1.081081
-0.19459459 -0.13513513 1.081081
-0.1891892 -0.13513513 1.081081
-0.18214285 -0.13392857 1.0714285
-0.17678571 -0.13392857 1.0714285
-0.17142858 -0.13392857 1.0714285
-0.16607143 -0.13392857 1.0714285
-0.15652174 -0.13043478 1.0434783
-0.15130435 -0.13043478 1.0434783
-0.14237288 -0.12711865 1.0169492
-0.13728814 -0.12711865 1.0169492
-0.13220339 -0.12711865 1.0169492
-0.12096774 -0.12096774 0.96774191
-0.11612903 -0.12096774 0.96774191
-0.11129032 -0.12096774 0.96774191
-0.10645162 -0.12096774 0.96774191
-0.1 -0.11904762 0.95238096
-0.094488189 -0.11811024 0.94488192
-0.089763783 -0.11811024 0.94488192
-0.08503937 -0.11811024 0.94488192
-0.079687499 -0.1171875 0.9375
-0.074418604 -0.11627907 0.93023258
-0.069767445 -0.11627907 0.93023258
-0.065116279 -0.11627907 0.93023258
-0.059999999 -0.11538462 0.92307693
-0.055384614 -0.11538462 0.92307693
-0.050769232 -0.11538462 0.92307693
-0.046153847 -0.11538462 0.92307693
-0.041538462 -0.11538462 0.92307693
-0.036641221 -0.11450382 0.91603053
-0.032307692 -0.11538462 0.92307693
-0.027480915 -0.11450382 0.91603053
-0.022900764 -0.11450382 0.91603053
-0.018320611 -0.11450382 0.91603053
-0.013636364 -0.11363637 0.90909094
-0.0091603054 -0.11450382 0.91603053
-0.0045454544 -0.11363637 0.90909094
0 -0.11363637 0.90909094
0.0045454544 -0.11363637 0.90909094
0.0090909088 -0.11363637 0.90909094
0.013636364 -0.11363637 0.90909094
0.018181818 -0.11363637 0.90909094
0.022727273 -0.11363637 0.90909094
0.027272727 -0.11363637 0.90909094
0.031818181 -0.11363637 0.90909094
0.036363635 -0.11363637 0.90909094
0.041221373 -0.11450382 0.91603053
0.045801528 -0.11450382 0.91603053
0.050381679 -0.11450382 0.91603053
0.055384614 -0.11538462 0.92307693
0.059999999 -0.11538462 0.92307693
0.064615384 -0.11538462 0.92307693
0.069230773 -0.11538462 0.92307693
0.074418604 -0.11627907 0.93023258
0.079069771 -0.11627907 0.93023258
0.084375001 -0.1171875 0.9375
0.089062497 -0.1171875 0.9375
0.09375 -0.1171875 0.9375
0.1 -0.11904762 0.95238096
0.10476191 -0.11904762 0.95238096
0.11896551 -0.12931034 1.0344827
0.12413793 -0.12931034 1.0344827
0.13043478 -0.13043478 1.0434783
0.13565217 -0.13043478 1.0434783
0.14210527 -0.13157895 1.0526316
0.14736842 -0.13157895 1.0526316
0.15263158 -0.13157895 1.0526316
0.15929204 -0.13274336 1.0619469
0.16909091 -0.13636364 1.0909091
0.17454545 -0.13636364 1.0909091
0.18000001 -0.13636364 1.0909091
0.18545455 -0.13636364 1.0909091
0.2 -0.14285715 1.1428572
0.20571429 -0.14285715 1.1428572
0.21346153 -0.14423077 1.1538461
0.21923077 -0.14423077 1.1538461
0.22499999 -0.14423077 1.1538461
0.23076923 -0.14423077 1.1538461
-0.2859813 -0.13457943 1.1214954
-0.28037384 -0.13457943 1.1214954
-0.27476636 -0.13457943 1.1214954
-0.26915887 -0.13457943 1.1214954
-0.26111111 -0.13333334 1.1111112
-0.25321102 -0.13211009 1.1009175
-0.24770643 -0.13211009 1.1009175
-0.24220183 -0.13211009 1.1009175
-0.23669724 -0.13211009 1.1009175
-0.22909091 -0.13090909 1.0909091
-0.22363636 -0.13090909 1.0909091
-0.21818182 -0.13090909 1.0909091
-0.21272728 -0.13090909 1.0909091
-0.20727272 -0.13090909 1.0909091
-0.2 -0.12972973 1.081081
-0.19459459 -0.12972973 1.081081
-0.1891892 -0.12972973 1.081081
-0.18214285 -0.12857144 1.0714285
-0.17678571 -0.12857144 1.0714285
-0.1699115 -0.12743363 1.0619469
-0.16460177 -0.12743363 1.0619469
-0.15652174 -0.12521739 1.0434783
-0.15130435 -0.12521739 1.0434783
-0.14237288 -0.1220339 1.0169492
-0.1338843 -0.11900827 0.99173552
-0.12786885 -0.11803278 0.98360658
-0.12096774 -0.11612903 0.96774191
-0.11612903 -0.11612903 0.96774191
-0.11129032 -0.11612903 0.96774191
-0.10476191 -0.11428571 0.95238096
-0.1 -0.11428571 0.95238096
-0.094488189 -0.11338583 0.94488192
-0.089763783 -0.11338583 0.94488192
-0.084375001 -0.1125 0.9375
-0.079687499 -0.1125 0.9375
-0.074418604 -0.11162791 0.93023258
-0.069767445 -0.11162791 0.93023258
-0.065116279 -0.11162791 0.93023258
-0.060465116 -0.11162791 0.93023258
-0.055384614 -0.11076923 0.92307693
-0.050769232 -0.11076923 0.92307693
-0.045801528 -0.10992366 0.91603053
-0.041221373 -0.10992366 0.91603053
-0.036641221 -0.10992366 0.91603053
-0.03206107 -0.10992366 0.91603053
-0.027272727 -0.10909091 0.90909094
-0.022727273 -0.10909091 0.90909094
-0.018320611 -0.10992366 0.91603053
-0.013636364 -0.10909091 0.90909094
-0.0090909088 -0.10909091 0.90909094
-0.0045454544 -0.10909091 0.90909094
0 -0.10909091 0.90909094
0.0045454544 -0.10909091 0.90909094
0.0090909088 -0.10909091 0.90909094
0.013533834 -0.10827067 0.90225565
0.018181818 -0.10909091 0.90909094
0.022727273 -0.10909091 0.90909094
0.027272727 -0.10909091 0.90909094
0.031818181 -0.10909091 0.90909094
0.036363635 -0.10909091 0.90909094
0.041221373 -0.10992366 0.91603053
0.045801528 -0.10992366 0.91603053
0.050000001 -0.10909091 0.90909094
0.054545455 -0.10909091 0.90909094
0.059999999 -0.11076923 0.92307693
0.064615384 -0.11076923 0.92307693
0.069230773 -0.11076923 0.92307693
0.073846154 -0.11076923 0.92307693
0.079069771 -0.11162791 0.93023258
0.08372093 -0.11162791 0.93023258
0.089062497 -0.1125 0.9375
0.09375 -0.1125 0.9375
0.098437503 -0.1125 0.9375
0.10476191 -0.11428571 0.95238096
0.10952381 -0.11428571 0.95238096
0.12413793 -0.12413793 1.0344827
0.13043478 -0.12521739 1.0434783
0.13565217 -0.12521739 1.0434783
0.14086956 -0.12521739 1.0434783
0.14736842 -0.12631579 1.0526316
0.1539823 -0.12743363 1.0619469
0.15929204 -0.12743363 1.0619469
0.16460177 -0.12743363 1.0619469
0.17454545 -0.13090909 1.0909091
0.18000001 -0.13090909 1.0909091
0.18888889 -0.13333334 1.1111112
0.1981132 -0.13584906 1.1320754
0.20571429 -0.13714285 1.1428572
0.21346153 -0.13846155 1.1538461
0.21923077 -0.13846155 1.1538461
0.22499999 -0.13846155 1.1538461
0.23076923 -0.13846155 1.1538461
0.23653845 -0.13846155 1.1538461
-0.28037384 -0.12897196 1.1214954
-0.27476636 -0.12897196 1.1214954
-0.26915887 -0.12897196 1.1214954
-0.26111111 -0.12777779 1.1111112
-0.25321102 -0.12660551 1.1009175
-0.24770643 -0.12660551 1.1009175
-0.24220183 -0.12660551 1.1009175
-0.23454545 -0.12545455 1.0909091
-0.22909091 -0.12545455 1.0909091
-0.22363636 -0.12545455 1.0909091
-0.21818182 -0.12545455 1.0909091
-0.21272728 -0.12545455 1.0909091
-0.20727272 -0.12545455 1.0909091
-0.20181818 -0.12545455 1.0909091
-0.19459459 -0.12432432 1.081081
-0.1891892 -0.12432432 1.081081
-0.18214285 -0.12321428 1.0714285
-0.17522123 -0.1221239 1.0619469
-0.1699115 -0.1221239 1.0619469
-0.16460177 -0.1221239 1.0619469
-0.15929204 -0.1221239 1.0619469
-0.15130435 -0.12 1.0434783
-0.13884297 -0.11404958 0.99173552
-0.1338843 -0.11404958 0.99173552
-0.12786885 -0.11311475 0.98360658
-0.12295082 -0.11311475 0.98360658
-0.11612903 -0.11129032 0.96774191
-0.1104 -0.1104 0.95999998
-0.1056 -0.1104 0.95999998
-0.1 -0.10952381 0.95238096
-0.094488189 -0.10866142 0.94488192
-0.089062497 -0.1078125 0.9375
-0.084375001 -0.1078125 0.9375
-0.079687499 -0.1078125 0.9375
-0.074418604 -0.10697675 0.93023258
-0.069767445 -0.10697675 0.93023258
-0.065116279 -0.10697675 0.93023258
-0.060465116 -0.10697675 0.93023258
-0.055384614 -0.10615385 0.92307693
-0.050381679 -0.10534351 0.91603053
-0.045801528 -0.10534351 0.91603053
-0.041221373 -0.10534351 0.91603053
-0.036641221 -0.10534351 0.91603053
-0.03206107 -0.10534351 0.91603053
-0.027480915 -0.10534351 0.91603053
-0.022727273 -0.10454545 0.90909094
-0.018181818 -0.10454545 0.90909094
-0.013533834 -0.1037594 0.90225565
-0.0090909088 -0.10454545 0.90909094
-0.0045454544 -0.10454545 0.90909094
0 -0.10454545 0.90909094
0.0045454544 -0.10454545 0.90909094
0.0090225562 -0.1037594 0.90225565
0.013533834 -0.1037594 0.90225565
0.018045112 -0.1037594 0.90225565
0.022556391 -0.1037594 0.90225565
0.027067669 -0.1037594 0.90225565
0.031818181 -0.10454545 0.90909094
0.036363635 -0.10454545 0.90909094
0.040909089 -0.10454545 0.90909094
0.045454547 -0.10454545 0.90909094
0.050000001 -0.10454545 0.90909094
0.054545455 -0.10454545 0.90909094
0.059090909 -0.10454545 0.90909094
0.064615384 -0.10615385 0.92307693
0.069230773 -0.10615385 0.92307693
0.073846154 -0.10615385 0.92307693
0.078461535 -0.10615385 0.92307693
0.083076924 -0.10615385 0.92307693
0.089062497 -0.1078125 0.9375
0.09375 -0.1078125 0.9375
0.098437503 -0.1078125 0.9375
0.10476191 -0.10952381 0.95238096
0.10952381 -0.10952381 0.95238096
0.11428571 -0.10952381 0.95238096
0.13043478 -0.12 1.0434783
0.13565217 -0.12 1.0434783
0.14086956 -0.12 1.0434783
0.14736842 -0.12105263 1.0526316
0.15263158 -0.12105263 1.0526316
0.15929204 -0.1221239 1.0619469
0.16460177 -0.1221239 1.0619469
0.17297298 -0.12432432 1.081081
0.18333334 -0.12777779 1.1111112
0.18888889 -0.12777779 1.1111112
0.1981132 -0.13018867 1.1320754
0.20377359 -0.13018867 1.1320754
0.21346153 -0.13269231 1.1538461
0.21923077 -0.13269231 1.1538461
0.22499999 -0.13269231 1.1538461
0.23076923 -0.13269231 1.1538461
0.24117647 -0.13529412 1.1764706
0.24705882 -0.13529412 1.1764706
0.25294119 -0.13529412 1.1764706
-0.28037384 -0.12336449 1.1214954
-0.27476636 -0.12336449 1.1214954
-0.26915887 -0.12336449 1.1214954
-0.2587156 -0.12110092 1.1009175
-0.25321102 -0.12110092 1.1009175
-0.24770643 -0.12110092 1.1009175
-0.24220183 -0.12110092 1.1009175
-0.23454545 -0.12 1.0909091
-0.22909091 -0.12 1.0909091
-0.22363636 -0.12 1.0909091
-0.21818182 -0.12 1.0909091
-0.21272728 -0.12 1.0909091
-0.20357142 -0.11785714 1.0714285
-0.19821429 -0.11785714 1.0714285
-0.19285715 -0.11785714 1.0714285
-0.1875 -0.11785714 1.0714285
-0.18214285 -0.11785714 1.0714285
-0.17522123 -0.11681416 1.0619469
-0.1699115 -0.11681416 1.0619469
-0.16460177 -0.11681416 1.0619469
-0.15789473 -0.11578947 1.0526316
-0.15263158 -0.11578947 1.0526316
-0.13884297 -0.10909091 0.99173552
-0.1338843 -0.10909091 0.99173552
-0.12786885 -0.10819672 0.98360658
-0.12096774 -0.10645162 0.96774191
-0.11612903 -0.10645162 0.96774191
-0.1104 -0.1056 0.95999998
-0.1056 -0.1056 0.95999998
-0.1 -0.10476191 0.95238096
-0.09375 -0.103125 0.9375
-0.089062497 -0.103125 0.9375
-0.084375001 -0.103125 0.9375
-0.079069771 -0.10232558 0.93023258
-0.074418604 -0.10232558 0.93023258
-0.069767445 -0.10232558 0.93023258
-0.064615384 -0.10153846 0.92307693
-0.059999999 -0.10153846 0.92307693
-0.055384614 -0.10153846 0.92307693
-0.050381679 -0.10076336 0.91603053
-0.045801528 -0.10076336 0.91603053
-0.041221373 -0.10076336 0.91603053
-0.036363635 -0.1 0.90909094
-0.03206107 -0.10076336 0.91603053
-0.027272727 -0.1 0.90909094
-0.022727273 -0.1 0.90909094
-0.018181818 -0.1 0.90909094
-0.013533834 -0.099248119 0.90225565
-0.0090225562 -0.099248119 0.90225565
-0.0045112781 -0.099248119 0.90225565
0 -0.099248119 0.90225565
0.0045112781 -0.099248119 0.90225565
0.0090225562 -0.099248119 0.90225565
0.013533834 -0.099248119 0.90225565
0.018045112 -0.099248119 0.90225565
0.022556391 -0.099248119 0.90225565
0.027067669 -0.099248119 0.90225565
0.031578947 -0.099248119 0.90225565
0.036090225 -0.099248119 0.90225565
0.040601503 -0.099248119 0.90225565
0.045112781 -0.099248119 0.90225565
0.050000001 -0.1 0.90909094
0.054545455 -0.1 0.90909094
0.059090909 -0.1 0.90909094
0.063636363 -0.1 0.90909094
0.069230773 -0.10153846 0.92307693
0.073846154 -0.10153846 0.92307693
0.078461535 -0.10153846 0.92307693
0.083076924 -0.10153846 0.92307693
0.088372096 -0.10232558 0.93023258
0.093023255 -0.10232558 0.93023258
0.098437503 -0.103125 0.9375
0.10476191 -0.10476191 0.95238096
0.10952381 -0.10476191 0.95238096
0.11428571 -0.10476191 0.95238096
0.13043478 -0.11478261 1.0434783
0.13565217 -0.11478261 1.0434783
0.14086956 -0.11478261 1.0434783
0.14608696 -0.11478261 1.0434783
0.15263158 -0.11578947 1.0526316
0.15789473 -0.11578947 1.0526316
0.16756757 -0.11891892 1.081081
0.17297298 -0.11891892 1.081081
0.17837837 -0.11891892 1.081081
0.19245283 -0.1245283 1.1320754
0.1981132 -0.1245283 1.1320754
0.20377359 -0.1245283 1.1320754
0.21142857 -0.12571429 1.1428572
0.21714285 -0.12571429 1.1428572
0.22499999 -0.12692308 1.1538461
0.23076923 -0.12692308 1.1538461
0.24117647 -0.12941177 1.1764706
0.24705882 -0.12941177 1.1764706
0.25294119 -0.12941177 1.1764706
-0.26422018 -0.11559633 1.1009175
-0.2587156 -0.11559633 1.1009175
-0.25321102 -0.11559633 1.1009175
-0.24770643 -0.11559633 1.1009175
-0.24220183 -0.11559633 1.1009175
-0.23669724 -0.11559633 1.1009175
-0.22909091 -0.11454546 1.0909091
-0.22363636 -0.11454546 1.0909091
-0.21818182 -0.11454546 1.0909091
-0.21081081 -0.11351351 1.081081
-0.20357142 -0.1125 1.0714285
-0.19821429 -0.1125 1.0714285
-0.19285715 -0.1125 1.0714285
-0.1875 -0.1125 1.0714285
-0.18214285 -0.1125 1.0714285
-0.17522123 -0.11150443 1.0619469
-0.1699115 -0.11150443 1.0619469
-0.16460177 -0.11150443 1.0619469
-0.15789473 -0.11052632 1.0526316
-0.15263158 -0.11052632 1.0526316
-0.14736842 -0.11052632 1.0526316
-0.1338843 -0.10413224 0.99173552
-0.12892562 -0.10413224 0.99173552
-0.12096774 -0.1016129 0.96774191
-0.11612903 -0.1016129 0.96774191
-0.10952381 -0.1 0.95238096
-0.10476191 -0.1 0.95238096
-0.098437503 -0.098437503 0.9375
-0.09375 -0.098437503 0.9375
-0.089062497 -0.098437503 0.9375
-0.08372093 -0.097674422 0.93023258
-0.079069771 -0.097674422 0.93023258
-0.073846154 -0.096923076 0.92307693
-0.069230773 -0.096923076 0.92307693
-0.064615384 -0.096923076 0.92307693
-0.059541985 -0.096183203 0.91603053
-0.05496183 -0.096183203 0.91603053
-0.050381679 -0.096183203 0.91603053
-0.045801528 -0.096183203 0.91603053
-0.040909089 -0.095454544 0.90909094
-0.036363635 -0.095454544 0.90909094
-0.031818181 -0.095454544 0.90909094
-0.027067669 -0.094736844 0.90225565
-0.022727273 -0.095454544 0.90909094
-0.018181818 -0.095454544 0.90909094
-0.013533834 -0.094736844 0.90225565
-0.0090225562 -0.094736844 0.90225565
-0.0045112781 -0.094736844 0.90225565
0 -0.094736844 0.90225565
0.0045112781 -0.094736844 0.90225565
0.0090225562 -0.094736844 0.90225565
0.013533834 -0.094736844 0.90225565
0.018045112 -0.094736844 0.90225565
0.022556391 -0.094736844 0.90225565
0.027067669 -0.094736844 0.90225565
0.031578947 -0.094736844 0.90225565
0.036090225 -0.094736844 0.90225565
0.040601503 -0.094736844 0.90225565
0.045112781 -0.094736844 0.90225565
0.049624059 -0.094736844 0.90225565
0.054545455 -0.095454544 0.90909094
0.059090909 -0.095454544 0.90909094
0.063636363 -0.095454544 0.90909094
0.06818182 -0.095454544 0.90909094
0.073282443 -0.096183203 0.91603053
0.077862598 -0.096183203 0.91603053
0.082442746 -0.096183203 0.91603053
0.088372096 -0.097674422 0.93023258
0.093023255 -0.097674422 0.93023258
0.098437503 -0.098437503 0.9375
0.10476191 -0.1 0.95238096
0.10952381 -0.1 0.95238096
0.11428571 -0.1 0.95238096
0.13043478 -0.10956522 1.0434783
0.13565217 -0.10956522 1.0434783
0.14086956 -0.10956522 1.0434783
0.14608696 -0.10956522 1.0434783
0.15130435 -0.10956522 1.0434783
0.15789473 -0.11052632 1.0526316
0.1631579 -0.11052632 1.0526316
0.17297298 -0.11351351 1.081081
0.17837837 -0.11351351 1.081081
0.19245283 -0.11886793 1.1320754
0.1981132 -0.11886793 1.1320754
0.20377359 -0.11886793 1.1320754
0.21142857 -0.12 1.1428572
0.21714285 -0.12 1.1428572
0.22499999 -0.12115385 1.1538461
0.23529412 -0.12352941 1.1764706
0.24117647 -0.12352941 1.1764706
0.24705882 -0.12352941 1.1764706
0.25294119 -0.12352941 1.1764706
0.25882354 -0.12352941 1.1764706
-0.27222222 -0.11111111 1.1111112
-0.26666668 -0.11111111 1.1111112
-0.26111111 -0.11111111 1.1111112
-0.25555557 -0.11111111 1.1111112
-0.25 -0.11111111 1.1111112
-0.24220183 -0.11009175 1.1009175
-0.23669724 -0.11009175 1.1009175
-0.23119266 -0.11009175 1.1009175
-0.22363636 -0.10909091 1.0909091
-0.21621622 -0.10810811 1.081081
-0.21081081 -0.10810811 1.081081
-0.20357142 -0.10714286 1.0714285
-0.19821429 -0.10714286 1.0714285
-0.19285715 -0.10714286 1.0714285
-0.1875 -0.10714286 1.0714285
-0.18214285 -0.10714286 1.0714285
-0.17522123 -0.10619469 1.0619469
-0.1699115 -0.10619469 1.0619469
-0.1631579 -0.10526316 1.0526316
-0.15789473 -0.10526316 1.0526316
-0.15263158 -0.10526316 1.0526316
-0.13884297 -0.099173553 0.99173552
-0.1338843 -0.099173553 0.99173552
-0.12892562 -0.099173553 0.99173552
-0.12396694 -0.099173553 0.99173552
-0.11428571 -0.095238097 0.95238096
-0.10952381 -0.095238097 0.95238096
-0.10476191 -0.095238097 0.95238096
-0.098437503 -0.09375 0.9375
-0.09375 -0.09375 0.9375
-0.089062497 -0.09375 0.9375
-0.08372093 -0.093023255 0.93023258
-0.079069771 -0.093023255 0.93023258
-0.073846154 -0.092307694 0.92307693
-0.069230773 -0.092307694 0.92307693
-0.06412214 -0.091603056 0.91603053
-0.059541985 -0.091603056 0.91603053
-0.05496183 -0.091603056 0.91603053
-0.050381679 -0.091603056 0.91603053
-0.045801528 -0.091603056 0.91603053
-0.040909089 -0.090909094 0.90909094
-0.036363635 -0.090909094 0.90909094
-0.031578947 -0.090225562 0.90225565
-0.027067669 -0.090225562 0.90225565
-0.022556391 -0.090225562 0.90225565
-0.018045112 -0.090225562 0.90225565
-0.013533834 -0.090225562 0.90225565
-0.0090225562 -0.090225562 0.90225565
-0.0044776117 -0.089552239 0.89552242
0 -0.090225562 0.90225565
0.0044776117 -0.089552239 0.89552242
0.0089552235 -0.089552239 0.89552242
0.013432836 -0.089552239 0.89552242
0.017910447 -0.089552239 0.89552242
0.02238806 -0.089552239 0.89552242
0.026865672 -0.089552239 0.89552242
0.031578947 -0.090225562 0.90225565
0.036090225 -0.090225562 0.90225565
0.040601503 -0.090225562 0.90225565
0.045112781 -0.090225562 0.90225565
0.049624059 -0.090225562 0.90225565
0.054135337 -0.090225562 0.90225565
0.059090909 -0.090909094 0.90909094
0.063636363 -0.090909094 0.90909094
0.06818182 -0.090909094 0.90909094
0.073282443 -0.091603056 0.91603053
0.077862598 -0.091603056 0.91603053
0.082442746 -0.091603056 0.91603053
0.088372096 -0.093023255 0.93023258
0.093023255 -0.093023255 0.93023258
0.097674422 -0.093023255 0.93023258
0.103125 -0.09375 0.9375
0.10952381 -0.095238097 0.95238096
0.11428571 -0.095238097 0.95238096
0.13043478 -0.10434783 1.0434783
0.13565217 -0.10434783 1.0434783
0.14086956 -0.10434783 1.0434783
0.14608696 -0.10434783 1.0434783
0.15130435 -0.10434783 1.0434783
0.15789473 -0.10526316 1.0526316
0.16607143 -0.10714286 1.0714285
0.17142858 -0.10714286 1.0714285
0.17678571 -0.10714286 1.0714285
0.18715596 -0.11009175 1.1009175
0.1981132 -0.11320755 1.1320754
0.20377359 -0.11320755 1.1320754
0.21142857 -0.11428571 1.1428572
0.21714285 -0.11428571 1.1428572
0.22285715 -0.11428571 1.1428572
0.23076923 -0.11538462 1.1538461
0.24117647 -0.11764706 1.1764706
0.24705882 -0.11764706 1.1764706
0.25294119 -0.11764706 1.1764706
-0.26666668 -0.10555556 1.1111112
-0.26111111 -0.10555556 1.1111112
-0.25555557 -0.10555556 1.1111112
-0.25 -0.10555556 1.1111112
-0.24220183 -0.10458715 1.1009175
-0.23669724 -0.10458715 1.1009175
-0.22909091 -0.10363636 1.0909091
-0.22162162 -0.1027027 1.081081
-0.21621622 -0.1027027 1.081081
-0.20892857 -0.10178571 1.0714285
-0.20357142 -0.10178571 1.0714285
-0.19821429 -0.10178571 1.0714285
-0.19285715 -0.10178571 1.0714285
-0.18584071 -0.10088496 1.0619469
-0.18053098 -0.10088496 1.0619469
-0.17522123 -0.10088496 1.0619469
-0.1699115 -0.10088496 1.0619469
-0.1631579 -0.1 1.0526316
-0.15789473 -0.1 1.0526316
-0.15263158 -0.1 1.0526316
-0.13884297 -0.094214879 0.99173552
-0.1338843 -0.094214879 0.99173552
-0.12682927 -0.092682928 0.97560978
-0.12 -0.091200002 0.95999998
-0.11428571 -0.090476193 0.95238096
-0.10952381 -0.090476193 0.95238096
-0.10393701 -0.089763783 0.94488192
-0.098437503 -0.089062497 0.9375
-0.09375 -0.089062497 0.9375
-0.089062497 -0.089062497 0.9375
-0.083076924 -0.087692305 0.92307693
-0.078461535 -0.087692305 0.92307693
-0.073846154 -0.087692305 0.92307693
-0.068702288 -0.087022901 0.91603053
-0.06412214 -0.087022901 0.91603053
-0.059541985 -0.087022901 0.91603053
-0.05496183 -0.087022901 0.91603053
-0.050000001 -0.086363636 0.90909094
-0.045454547 -0.086363636 0.90909094
-0.040909089 -0.086363636 0.90909094
-0.036363635 -0.086363636 0.90909094
-0.031818181 -0.086363636 0.90909094
-0.027067669 -0.085714288 0.90225565
-0.022556391 -0.085714288 0.90225565
-0.018045112 -0.085714288 0.90225565
-0.013533834 -0.085714288 0.90225565
-0.0090225562 -0.085714288 0.90225565
-0.0044776117 -0.085074626 0.89552242
0 -0.085074626 0.89552242
0.0044776117 -0.085074626 0.89552242
0.0089552235 -0.085074626 0.89552242
0.013432836 -0.085074626 0.89552242
0.017910447 -0.085074626 0.89552242
0.02238806 -0.085074626 0.89552242
0.026865672 -0.085074626 0.89552242
0.031343285 -0.085074626 0.89552242
0.035820894 -0.085074626 0.89552242
0.040601503 -0.085714288 0.90225565
0.045112781 -0.085714288 0.90225565
0.049624059 -0.085714288 0.90225565
0.054135337 -0.085714288 0.90225565
0.058646616 -0.085714288 0.90225565
0.063636363 -0.086363636 0.90909094
0.06818182 -0.086363636 0.90909094
0.073282443 -0.087022901 0.91603053
0.077862598 -0.087022901 0.91603053
0.082442746 -0.087022901 0.91603053
0.087022901 -0.087022901 0.91603053
0.092307694 -0.087692305 0.92307693
0.096923076 -0.087692305 0.92307693
0.103125 -0.089062497 0.9375
0.1078125 -0.089062497 0.9375
0.11428571 -0.090476193 0.95238096
0.11904762 -0.090476193 0.95238096
0.13565217 -0.099130437 1.0434783
0.14086956 -0.099130437 1.0434783
0.14608696 -0.099130437 1.0434783
0.15263158 -0.1 1.0526316
0.15789473 -0.1 1.0526316
0.16460177 -0.10088496 1.0619469
0.17142858 -0.10178571 1.0714285
0.18165137 -0.10458715 1.1009175
0.18715596 -0.10458715 1.1009175
0.19266056 -0.10458715 1.1009175
0.20186916 -0.10654206 1.1214954
0.20943396 -0.10754717 1.1320754
0.21714285 -0.10857143 1.1428572
0.22285715 -0.10857143 1.1428572
0.23076923 -0.10961539 1.1538461
0.23883495 -0.11067961 1.1650486
0.2446602 -0.11067961 1.1650486
0.25048545 -0.11067961 1.1650486
0.25631067 -0.11067961 1.1650486
-0.26666668 -0.1 1.1111112
-0.26111111 -0.1 1.1111112
-0.25555557 -0.1 1.1111112
-0.25 -0.1 1.1111112
-0.24220183 -0.099082567 1.1009175
-0.23669724 -0.099082567 1.1009175
-0.22909091 -0.098181821 1.0909091
-0.22162162 -0.097297296 1.081081
-0.21621622 -0.097297296 1.081081
-0.20892857 -0.096428573 1.0714285
-0.20357142 -0.096428573 1.0714285
-0.19821429 -0.096428573 1.0714285
-0.19115044 -0.095575221 1.0619469
-0.18584071 -0.095575221 1.0619469
-0.18053098 -0.095575221 1.0619469
-0.17522123 -0.095575221 1.0619469
-0.1699115 -0.095575221 1.0619469
-0.1631579 -0.094736844 1.0526316
-0.15789473 -0.094736844 1.0526316
-0.15263158 -0.094736844 1.0526316
-0.14608696 -0.093913041 1.0434783
-0.13170731 -0.087804876 0.97560978
-0.12682927 -0.087804876 0.97560978
-0.12 -0.086400002 0.95999998
-0.1152 -0.086400002 0.95999998
-0.10952381 -0.085714288 0.95238096
-0.10393701 -0.08503937 0.94488192
-0.098437503 -0.084375001 0.9375
-0.093023255 -0.08372093 0.93023258
-0.088372096 -0.08372093 0.93023258
-0.083076924 -0.083076924 0.92307693
-0.078461535 -0.083076924 0.92307693
-0.073846154 -0.083076924 0.92307693
-0.068702288 -0.082442746 0.91603053
-0.06412214 -0.082442746 0.91603053
-0.059541985 -0.082442746 0.91603053
-0.054545455 -0.081818178 0.90909094
-0.050000001 -0.081818178 0.90909094
-0.045454547 -0.081818178 0.90909094
-0.040909089 -0.081818178 0.90909094
-0.036363635 -0.081818178 0.90909094
-0.031578947 -0.081203006 0.90225565
-0.027067669 -0.081203006 0.90225565
-0.022556391 -0.081203006 0.90225565
-0.017910447 -0.080597013 0.89552242
-0.013432836 -0.080597013 0.89552242
-0.0090225562 -0.081203006 0.90225565
-0.0044776117 -0.080597013 0.89552242
0 -0.080597013 0.89552242
0.0044776117 -0.080597013 0.89552242
0.0089552235 -0.080597013 0.89552242
0.013432836 -0.080597013 0.89552242
0.017910447 -0.080597013 0.89552242
0.02238806 -0.080597013 0.89552242
0.026865672 -0.080597013 0.89552242
0.031343285 -0.080597013 0.89552242
0.035820894 -0.080597013 0.89552242
0.040298507 -0.080597013 0.89552242
0.044776119 -0.080597013 0.89552242
0.049624059 -0.081203006 0.90225565
0.054135337 -0.081203006 0.90225565
0.058646616 -0.081203006 0.90225565
0.063157894 -0.081203006 0.90225565
0.06818182 -0.081818178 0.90909094
0.07272727 -0.081818178 0.90909094
0.077862598 -0.082442746 0.91603053
0.082442746 -0.082442746 0.91603053
0.087692305 -0.083076924 0.92307693
0.092307694 -0.083076924 0.92307693
0.096923076 -0.083076924 0.92307693
0.10232558 -0.08372093 0.93023258
0.10697675 -0.08372093 0.93023258
0.11162791 -0.08372093 0.93023258
0.1171875 -0.084375001 0.9375
0.13565217 -0.093913041 1.0434783
0.14086956 -0.093913041 1.0434783
0.14608696 -0.093913041 1.0434783
0.15263158 -0.094736844 1.0526316
0.15789473 -0.094736844 1.0526316
0.16460177 -0.095575221 1.0619469
0.1699115 -0.095575221 1.0619469
0.18165137 -0.099082567 1.1009175
0.18715596 -0.099082567 1.1009175
0.19626169 -0.10093458 1.1214954
0.20186916 -0.10093458 1.1214954
0.20943396 -0.10188679 1.1320754
0.21509434 -0.10188679 1.1320754
0.22285715 -0.10285714 1.1428572
0.23076923 -0.10384616 1.1538461
0.23883495 -0.10485437 1.1650486
0.2446602 -0.10485437 1.1650486
0.25048545 -0.10485437 1.1650486
-0.27169812 -0.096226417 1.1320754
-0.26603773 -0.096226417 1.1320754
-0.26037735 -0.096226417 1.1320754
-0.25 -0.094444446 1.1111112
-0.24220183 -0.093577981 1.1009175
-0.23669724 -0.093577981 1.1009175
-0.22909091 -0.092727274 1.0909091
-0.22162162 -0.091891892 1.081081
-0.21428572 -0.091071427 1.0714285
-0.20892857 -0.091071427 1.0714285
-0.20357142 -0.091071427 1.0714285
-0.19821429 -0.091071427 1.0714285
-0.19115044 -0.09026549 1.0619469
-0.18584071 -0.09026549 1.0619469
-0.18053098 -0.09026549 1.0619469
-0.17522123 -0.09026549 1.0619469
-0.16842106 -0.089473687 1.0526316
-0.1631579 -0.089473687 1.0526316
-0.15789473 -0.089473687 1.0526316
-0.15263158 -0.089473687 1.0526316
-0.14608696 -0.088695653 1.0434783
-0.14086956 -0.088695653 1.0434783
-0.12682927 -0.082926832 0.97560978
-0.12 -0.081600003 0.95999998
-0.1152 -0.081600003 0.95999998
-0.10952381 -0.080952384 0.95238096
-0.10393701 -0.080314964 0.94488192
-0.097674422 -0.079069771 0.93023258
-0.093023255 -0.079069771 0.93023258
-0.088372096 -0.079069771 0.93023258
-0.083076924 -0.078461535 0.92307693
-0.078461535 -0.078461535 0.92307693
-0.073282443 -0.077862598 0.91603053
-0.068702288 -0.077862598 0.91603053
-0.06412214 -0.077862598 0.91603053
-0.059541985 -0.077862598 0.91603053
-0.054545455 -0.077272728 0.90909094
-0.050000001 -0.077272728 0.90909094
-0.045454547 -0.077272728 0.90909094
-0.040601503 -0.076691732 0.90225565
-0.036090225 -0.076691732 0.90225565
-0.031578947 -0.076691732 0.90225565
-0.027067669 -0.076691732 0.90225565
-0.022556391 -0.076691732 0.90225565
-0.017910447 -0.076119401 0.89552242
-0.013432836 -0.076119401 0.89552242
-0.0089552235 -0.076119401 0.89552242
-0.0044776117 -0.076119401 0.89552242
0 -0.076119401 0.89552242
0.0044776117 -0.076119401 0.89552242
0.0089552235 -0.076119401 0.89552242
0.013432836 -0.076119401 0.89552242
0.017910447 -0.076119401 0.89552242
0.02238806 -0.076119401 0.89552242
0.026865672 -0.076119401 0.89552242
0.031343285 -0.076119401 0.89552242
0.035820894 -0.076119401 0.89552242
0.040298507 -0.076119401 0.89552242
0.044776119 -0.076119401 0.89552242
0.049253732 -0.076119401 0.89552242
0.054135337 -0.076691732 0.90225565
0.058646616 -0.076691732 0.90225565
0.063157894 -0.076691732 0.90225565
0.067669176 -0.076691732 0.90225565
0.07272727 -0.077272728 0.90909094
0.077862598 -0.077862598 0.91603053
0.082442746 -0.077862598 0.91603053
0.087692305 -0.078461535 0.92307693
0.092307694 -0.078461535 0.92307693
0.097674422 -0.079069771 0.93023258
0.10232558 -0.079069771 0.93023258
0.10697675 -0.079069771 0.93023258
0.1125 -0.079687499 0.9375
0.1171875 -0.079687499 0.9375
0.13448276 -0.087931037 1.0344827
0.14086956 -0.088695653 1.0434783
0.14608696 -0.088695653 1.0434783
0.15263158 -0.089473687 1.0526316
0.15789473 -0.089473687 1.0526316
0.16460177 -0.09026549 1.0619469
0.17142858 -0.091071427 1.0714285
0.17837837 -0.091891892 1.081081
0.18715596 -0.093577981 1.1009175
0.19444445 -0.094444446 1.1111112
0.20186916 -0.095327102 1.1214954
0.20943396 -0.096226417 1.1320754
0.21714285 -0.09714286 1.1428572
0.22285715 -0.09714286 1.1428572
0.22857143 -0.09714286 1.1428572
0.23428571 -0.09714286 1.1428572
0.2446602 -0.099029124 1.1650486
0.25294119 -0.1 1.1764706
0.25882354 -0.1 1.1764706
0.2647059 -0.1 1.1764706
-0.2773585 -0.090566039 1.1320754
-0.27169812 -0.090566039 1.1320754
-0.26603773 -0.090566039 1.1320754
-0.26037735 -0.090566039 1.1320754
-0.25471699 -0.090566039 1.1320754
-0.24220183 -0.088073395 1.1009175
-0.23454545 -0.087272726 1.0909091
-0.22702703 -0.086486489 1.081081
-0.21964286 -0.085714288 1.0714285
-0.21428572 -0.085714288 1.0714285
-0.20892857 -0.085714288 1.0714285
-0.20357142 -0.085714288 1.0714285
-0.19646017 -0.084955752 1.0619469
-0.19115044 -0.084955752 1.0619469
-0.18584071 -0.084955752 1.0619469
-0.18053098 -0.084955752 1.0619469
-0.17368421 -0.08421053 1.0526316
-0.16842106 -0.08421053 1.0526316
-0.1631579 -0.08421053 1.0526316
-0.15789473 -0.08421053 1.0526316
-0.15130435 -0.083478265 1.0434783
-0.14608696 -0.083478265 1.0434783
-0.1338843 -0.079338841 0.99173552
-0.12580645 -0.077419356 0.96774191
-0.12096774 -0.077419356 0.96774191
-0.1152 -0.076800004 0.95999998
-0.10866142 -0.075590551 0.94488192
-0.103125 -0.075000003 0.9375
-0.097674422 -0.074418604 0.93023258
-0.093023255 -0.074418604 0.93023258
-0.088372096 -0.074418604 0.93023258
-0.083076924 -0.073846154 0.92307693
-0.078461535 -0.073846154 0.92307693
-0.073282443 -0.073282443 0.91603053
-0.068702288 -0.073282443 0.91603053
-0.063636363 -0.07272727 0.90909094
-0.059090909 -0.07272727 0.90909094
-0.054545455 -0.07272727 0.90909094
-0.050000001 -0.07272727 0.90909094
-0.045454547 -0.07272727 0.90909094
-0.040601503 -0.07218045 0.90225565
-0.036090225 -0.07218045 0.90225565
-0.031578947 -0.07218045 0.90225565
-0.026865672 -0.071641788 0.89552242
-0.02238806 -0.071641788 0.89552242
-0.017910447 -0.071641788 0.89552242
-0.013432836 -0.071641788 0.89552242
-0.0089552235 -0.071641788 0.89552242
-0.0044776117 -0.071641788 0.89552242
0 -0.071641788 0.89552242
0.0044776117 -0.071641788 0.89552242
0.0089552235 -0.071641788 0.89552242
0.013432836 -0.071641788 0.89552242
0.017910447 -0.071641788 0.89552242
0.02238806 -0.071641788 0.89552242
0.026865672 -0.071641788 0.89552242
0.031343285 -0.071641788 0.89552242
0.035820894 -0.071641788 0.89552242
0.040298507 -0.071641788 0.89552242
0.044776119 -0.071641788 0.89552242
0.049624059 -0.07218045 0.90225565
0.054135337 -0.07218045 0.90225565
0.058646616 -0.07218045 0.90225565
0.063157894 -0.07218045 0.90225565
0.06818182 -0.07272727 0.90909094
0.07272727 -0.07272727 0.90909094
0.077862598 -0.073282443 0.91603053
0.082442746 -0.073282443 0.91603053
0.087692305 -0.073846154 0.92307693
0.092307694 -0.073846154 0.92307693
0.097674422 -0.074418604 0.93023258
0.10232558 -0.074418604 0.93023258
0.1078125 -0.075000003 0.9375
0.1125 -0.075000003 0.9375
0.12931034 -0.08275862 1.0344827
0.13448276 -0.08275862 1.0344827
0.13965517 -0.08275862 1.0344827
0.14608696 -0.083478265 1.0434783
0.15263158 -0.08421053 1.0526316
0.15789473 -0.08421053 1.0526316
0.16607143 -0.085714288 1.0714285
0.17142858 -0.085714288 1.0714285
0.17837837 -0.086486489 1.081081
0.18378378 -0.086486489 1.081081
0.19444445 -0.088888891 1.1111112
0.20186916 -0.089719623 1.1214954
0.20747663 -0.089719623 1.1214954
0.21714285 -0.09142857 1.1428572
0.22285715 -0.09142857 1.1428572
0.22857143 -0.09142857 1.1428572
0.23428571 -0.09142857 1.1428572
0.2446602 -0.09320388 1.1650486
0.25294119 -0.094117649 1.1764706
0.25882354 -0.094117649 1.1764706
0.2647059 -0.094117649 1.1764706
-0.27169812 -0.084905662 1.1320754
-0.26603773 -0.084905662 1.1320754
-0.26037735 -0.084905662 1.1320754
-0.25471699 -0.084905662 1.1320754
-0.23999999 -0.081818178 1.0909091
-0.23454545 -0.081818178 1.0909091
-0.22702703 -0.081081077 1.081081
-0.21964286 -0.080357142 1.0714285
-0.21428572 -0.080357142 1.0714285
-0.20892857 -0.080357142 1.0714285
-0.20176992 -0.079646021 1.0619469
-0.19646017 -0.079646021 1.0619469
-0.19115044 -0.079646021 1.0619469
-0.18584071 -0.079646021 1.0619469
-0.18053098 -0.079646021 1.0619469
