# .PCD v0.7 - Point Cloud Data file format
VERSION 0.7
FIELDS x y z
SIZE 4 4 4
TYPE F F F
COUNT 1 1 1
WIDTH 1499
HEIGHT 1
VIEWPOINT 0 0 0 1 0 0 0
POINTS 1499
DATA ascii
-0.15918367 0.030612245 1.2244898
-0.15306123 0.030612245 1.2244898
-0.14545454 0.030303031 1.2121212
-0.13939394 0.030303031 1.2121212
-0.13333334 0.030303031 1.2121212
-0.12727273 0.030303031 1.2121212
-0.12121212 0.030303031 1.2121212
-0.114 0.029999999 1.2
-0.108 0.029999999 1.2
-0.1009901 0.029702971 1.1881188
-0.095049508 0.029702971 1.1881188
-0.089108914 0.029702971 1.1881188
-0.08316832 0.029702971 1.1881188
-0.076470591 0.029411765 1.1764706
-0.070588239 0.029411765 1.1764706
-0.064705886 0.029411765 1.1764706
-0.05882353 0.029411765 1.1764706
-0.052941177 0.029411765 1.1764706
-0.047058824 0.029411765 1.1764706
-0.041176472 0.029411765 1.1764706
-0.035294119 0.029411765 1.1764706
-0.029411765 0.029411765 1.1764706
-0.023529412 0.029411765 1.1764706
-0.01764706 0.029411765 1.1764706
-0.011764706 0.029411765 1.1764706
-0.0058823531 0.029411765 1.1764706
0 0.029411765 1.1764706
0.0058823531 0.029411765 1.1764706
0.011881188 0.029702971 1.1881188
0.017821781 0.029702971 1.1881188
0.023762377 0.029702971 1.1881188
0.029702971 0.029702971 1.1881188
0.035643563 0.029702971 1.1881188
0.041999999 0.029999999 1.2
0.048 0.029999999 1.2
0.054000001 0.029999999 1.2
0.059999999 0.029999999 1.2
0.066 0.029999999 1.2
0.071999997 0.029999999 1.2
0.078787878 0.030303031 1.2121212
0.084848486 0.030303031 1.2121212
0.090909094 0.030303031 1.2121212
0.096969694 0.030303031 1.2121212
0.1030303 0.030303031 1.2121212
0.10909091 0.030303031 1.2121212
0.11515152 0.030303031 1.2121212
0.10619469 0.026548672 1.0619469
0.11150443 0.026548672 1.0619469
0.11578947 0.02631579 1.0526316
0.12105263 0.02631579 1.0526316
0.12631579 0.02631579 1.0526316
0.12931034 0.02586207 1.0344827
0.13448276 0.02586207 1.0344827
0.13965517 0.02586207 1.0344827
0.14482759 0.02586207 1.0344827
0.15000001 0.02586207 1.0344827
0.15652174 0.026086956 1.0434783
0.16173913 0.026086956 1.0434783
0.16842106 0.02631579 1.0526316
0.17368421 0.02631579 1.0526316
0.18053098 0.026548672 1.0619469
0.1875 0.026785715 1.0714285
0.19636364 0.027272727 1.0909091
0.20181818 0.027272727 1.0909091
0.20727272 0.027272727 1.0909091
0.21666667 0.027777778 1.1111112
0.22222222 0.027777778 1.1111112
0.22777778 0.027777778 1.1111112
0.24230769 0.028846154 1.1538461
0.24807692 0.028846154 1.1538461
0.25384617 0.028846154 1.1538461
0.25961539 0.028846154 1.1538461
0.26538461 0.028846154 1.1538461
0.28484848 0.030303031 1.2121212
0.29090908 0.030303031 1.2121212
0.29696971 0.030303031 1.2121212
0.30927834 0.030927835 1.2371134
0.31546393 0.030927835 1.2371134
0.32164949 0.030927835 1.2371134
0.35730338 0.033707865 1.3483146
0.36404493 0.033707865 1.3483146
0.37931034 0.034482758 1.3793104
0.3862069 0.034482758 1.3793104
0.39310345 0.034482758 1.3793104
0.40000001 0.034482758 1.3793104
0.40689656 0.034482758 1.3793104
0.41379312 0.034482758 1.3793104
0.42068964 0.034482758 1.3793104
0.4275862 0.034482758 1.3793104
-0.21935484 0.038709678 1.2903225
-0.21290323 0.038709678 1.2903225
-0.20645161 0.038709678 1.2903225
-0.2 0.038709678 1.2903225
-0.19148937 0.038297873 1.2765957
-0.18510638 0.038297873 1.2765957
-0.17142858 0.036734693 1.2244898
-0.16530612 0.036734693 1.2244898
-0.15918367 0.036734693 1.2244898
-0.15306123 0.036734693 1.2244898
-0.14545454 0.036363635 1.2121212
-0.138 0.035999998 1.2
-0.13333334 0.036363635 1.2121212
-0.126 0.035999998 1.2
-0.12 0.035999998 1.2
-0.114 0.035999998 1.2
-0.1069307 0.035643563 1.1881188
-0.1009901 0.035643563 1.1881188
-0.095049508 0.035643563 1.1881188
-0.088235296 0.035294119 1.1764706
-0.082352944 0.035294119 1.1764706
-0.076470591 0.035294119 1.1764706
-0.070588239 0.035294119 1.1764706
-0.064705886 0.035294119 1.1764706
-0.05882353 0.035294119 1.1764706
-0.052941177 0.035294119 1.1764706
-0.047058824 0.035294119 1.1764706
-0.041176472 0.035294119 1.1764706
-0.035294119 0.035294119 1.1764706
-0.029411765 0.035294119 1.1764706
-0.023529412 0.035294119 1.1764706
-0.01764706 0.035294119 1.1764706
-0.011764706 0.035294119 1.1764706
-0.0058823531 0.035294119 1.1764706
0 0.035294119 1.1764706
0.0058823531 0.035294119 1.1764706
0.011764706 0.035294119 1.1764706
0.01764706 0.035294119 1.1764706
0.023762377 0.035643563 1.1881188
0.029702971 0.035643563 1.1881188
0.035643563 0.035643563 1.1881188
0.04158416 0.035643563 1.1881188
0.048 0.035999998 1.2
0.054000001 0.035999998 1.2
0.059999999 0.035999998 1.2
0.066 0.035999998 1.2
0.071999997 0.035999998 1.2
0.078787878 0.036363635 1.2121212
0.084848486 0.036363635 1.2121212
0.090909094 0.036363635 1.2121212
0.096969694 0.036363635 1.2121212
0.1030303 0.036363635 1.2121212
0.10909091 0.036363635 1.2121212
0.11515152 0.036363635 1.2121212
0.12121212 0.036363635 1.2121212
0.12857144 0.036734693 1.2244898
0.13469388 0.036734693 1.2244898
0.14081633 0.036734693 1.2244898
0.12972973 0.032432433 1.081081
0.13513513 0.032432433 1.081081
0.14054054 0.032432433 1.081081
0.13965517 0.031034483 1.0344827
0.14482759 0.031034483 1.0344827
0.15000001 0.031034483 1.0344827
0.15652174 0.031304348 1.0434783
0.16173913 0.031304348 1.0434783
0.16842106 0.031578947 1.0526316
0.17368421 0.031578947 1.0526316
0.18053098 0.031858407 1.0619469
0.1875 0.032142859 1.0714285
0.19285715 0.032142859 1.0714285
0.20181818 0.032727271 1.0909091
0.20917431 0.033027522 1.1009175
0.21666667 0.033333335 1.1111112
0.22222222 0.033333335 1.1111112
0.22777778 0.033333335 1.1111112
0.23999999 0.034285713 1.1428572
0.24807692 0.034615386 1.1538461
0.25384617 0.034615386 1.1538461
0.25961539 0.034615386 1.1538461
0.26538461 0.034615386 1.1538461
0.28484848 0.036363635 1.2121212
0.29090908 0.036363635 1.2121212
0.29696971 0.036363635 1.2121212
0.30303031 0.036363635 1.2121212
0.31546393 0.037113402 1.2371134
0.32164949 0.037113402 1.2371134
0.33473685 0.037894737 1.2631578
0.34105262 0.037894737 1.2631578
0.375 0.040909089 1.3636364
0.38181818 0.040909089 1.3636364
0.38863635 0.040909089 1.3636364
0.40000001 0.04137931 1.3793104
0.40689656 0.04137931 1.3793104
0.40909091 0.040909089 1.3636364
0.41590908 0.040909089 1.3636364
0.42272729 0.040909089 1.3636364
-0.21290323 0.045161292 1.2903225
-0.20645161 0.045161292 1.2903225
-0.2 0.045161292 1.2903225
-0.19148937 0.044680852 1.2765957
-0.17755102 0.042857144 1.2244898
-0.17142858 0.042857144 1.2244898
-0.16530612 0.042857144 1.2244898
-0.15918367 0.042857144 1.2244898
-0.15151516 0.042424243 1.2121212
-0.14399999 0.041999999 1.2
-0.138 0.041999999 1.2
-0.132 0.041999999 1.2
-0.126 0.041999999 1.2
-0.11881188 0.04158416 1.1881188
-0.11287129 0.04158416 1.1881188
-0.1069307 0.04158416 1.1881188
-0.1009901 0.04158416 1.1881188
-0.094117649 0.041176472 1.1764706
-0.088235296 0.041176472 1.1764706
-0.082352944 0.041176472 1.1764706
-0.076470591 0.041176472 1.1764706
-0.070588239 0.041176472 1.1764706
-0.064077668 0.0407767 1.1650486
-0.05882353 0.041176472 1.1764706
-0.052941177 0.041176472 1.1764706
-0.047058824 0.041176472 1.1764706
-0.041176472 0.041176472 1.1764706
-0.035294119 0.041176472 1.1764706
-0.029411765 0.041176472 1.1764706
-0.023529412 0.041176472 1.1764706
-0.017475728 0.0407767 1.1650486
-0.011764706 0.041176472 1.1764706
-0.0058823531 0.041176472 1.1764706
0 0.041176472 1.1764706
0.0058823531 0.041176472 1.1764706
0.011764706 0.041176472 1.1764706
0.01764706 0.041176472 1.1764706
0.023529412 0.041176472 1.1764706
0.029411765 0.041176472 1.1764706
0.035294119 0.041176472 1.1764706
0.041999999 0.041999999 1.2
0.048 0.041999999 1.2
0.054000001 0.041999999 1.2
0.059999999 0.041999999 1.2
0.066 0.041999999 1.2
0.071999997 0.041999999 1.2
0.078787878 0.042424243 1.2121212
0.084848486 0.042424243 1.2121212
0.090909094 0.042424243 1.2121212
0.096969694 0.042424243 1.2121212
0.1030303 0.042424243 1.2121212
0.10909091 0.042424243 1.2121212
0.11632653 0.042857144 1.2244898
0.12244898 0.042857144 1.2244898
0.12857144 0.042857144 1.2244898
0.13469388 0.042857144 1.2244898
0.14081633 0.042857144 1.2244898
0.12972973 0.037837837 1.081081
0.13513513 0.037837837 1.081081
0.14054054 0.037837837 1.081081
0.14594595 0.037837837 1.081081
0.14736842 0.036842104 1.0526316
0.15263158 0.036842104 1.0526316
0.15789473 0.036842104 1.0526316
0.16173913 0.03652174 1.0434783
0.16842106 0.036842104 1.0526316
0.17368421 0.036842104 1.0526316
0.18053098 0.037168141 1.0619469
0.1875 0.037500001 1.0714285
0.19459459 0.037837837 1.081081
0.2 0.037837837 1.081081
0.20917431 0.038532112 1.1009175
0.2146789 0.038532112 1.1009175
0.22222222 0.03888889 1.1111112
0.22990654 0.039252337 1.1214954
0.23999999 0.039999999 1.1428572
0.24571429 0.039999999 1.1428572
0.25384617 0.040384617 1.1538461
0.25961539 0.040384617 1.1538461
0.26796117 0.0407767 1.1650486
0.27920792 0.04158416 1.1881188
0.2851485 0.04158416 1.1881188
0.29696971 0.042424243 1.2121212
0.30303031 0.042424243 1.2121212
0.31546393 0.043298971 1.2371134
0.32842106 0.044210527 1.2631578
0.33473685 0.044210527 1.2631578
0.34105262 0.044210527 1.2631578
0.375 0.047727272 1.3636364
0.38181818 0.047727272 1.3636364
0.38863635 0.047727272 1.3636364
0.39545456 0.047727272 1.3636364
0.40227273 0.047727272 1.3636364
0.40909091 0.047727272 1.3636364
0.41590908 0.047727272 1.3636364
0.42272729 0.047727272 1.3636364
0.42954546 0.047727272 1.3636364
-0.21290323 0.051612902 1.2903225
-0.20645161 0.051612902 1.2903225
-0.2 0.051612902 1.2903225
-0.18556701 0.049484536 1.2371134
-0.17938145 0.049484536 1.2371134
-0.17142858 0.048979592 1.2244898
-0.16530612 0.048979592 1.2244898
-0.15757576 0.048484847 1.2121212
-0.15151516 0.048484847 1.2121212
-0.14399999 0.048 1.2
-0.138 0.048 1.2
-0.13069306 0.047524754 1.1881188
-0.12475248 0.047524754 1.1881188
-0.11881188 0.047524754 1.1881188
-0.11287129 0.047524754 1.1881188
-0.10588235 0.047058824 1.1764706
-0.1 0.047058824 1.1764706
-0.094117649 0.047058824 1.1764706
-0.088235296 0.047058824 1.1764706
-0.082352944 0.047058824 1.1764706
-0.076470591 0.047058824 1.1764706
-0.070588239 0.047058824 1.1764706
-0.064077668 0.04660194 1.1650486
-0.058252428 0.04660194 1.1650486
-0.052941177 0.047058824 1.1764706
-0.047058824 0.047058824 1.1764706
-0.0407767 0.04660194 1.1650486
-0.034951456 0.04660194 1.1650486
-0.029126214 0.04660194 1.1650486
-0.02330097 0.04660194 1.1650486
-0.017475728 0.04660194 1.1650486
-0.011650485 0.04660194 1.1650486
-0.0058823531 0.047058824 1.1764706
0 0.047058824 1.1764706
0.0058823531 0.047058824 1.1764706
0.011764706 0.047058824 1.1764706
0.01764706 0.047058824 1.1764706
0.023529412 0.047058824 1.1764706
0.029411765 0.047058824 1.1764706
0.035294119 0.047058824 1.1764706
0.041176472 0.047058824 1.1764706
0.048 0.048 1.2
0.054000001 0.048 1.2
0.059999999 0.048 1.2
0.066 0.048 1.2
0.071999997 0.048 1.2
0.078787878 0.048484847 1.2121212
0.084848486 0.048484847 1.2121212
0.090909094 0.048484847 1.2121212
0.096969694 0.048484847 1.2121212
0.1030303 0.048484847 1.2121212
0.10909091 0.048484847 1.2121212
0.11632653 0.048979592 1.2244898
0.12244898 0.048979592 1.2244898
0.12857144 0.048979592 1.2244898
0.13469388 0.048979592 1.2244898
0.14081633 0.048979592 1.2244898
0.12972973 0.043243244 1.081081
0.13513513 0.043243244 1.081081
0.14054054 0.043243244 1.081081
0.14594595 0.043243244 1.081081
0.14736842 0.042105265 1.0526316
0.15263158 0.042105265 1.0526316
0.15789473 0.042105265 1.0526316
0.1631579 0.042105265 1.0526316
0.16842106 0.042105265 1.0526316
0.17368421 0.042105265 1.0526316
0.18214285 0.042857144 1.0714285
0.1875 0.042857144 1.0714285
0.19459459 0.043243244 1.081081
0.2 0.043243244 1.081081
0.2054054 0.043243244 1.081081
0.2146789 0.044036698 1.1009175
0.22018349 0.044036698 1.1009175
0.22990654 0.044859812 1.1214954
0.23551401 0.044859812 1.1214954
0.24571429 0.045714285 1.1428572
0.25142857 0.045714285 1.1428572
0.26213592 0.04660194 1.1650486
0.26796117 0.04660194 1.1650486
0.27920792 0.047524754 1.1881188
0.2851485 0.047524754 1.1881188
0.294 0.048 1.2
0.30000001 0.048 1.2
0.31546393 0.049484536 1.2371134
0.32164949 0.049484536 1.2371134
0.33473685 0.050526317 1.2631578
0.34105262 0.050526317 1.2631578
0.375 0.054545455 1.3636364
0.38181818 0.054545455 1.3636364
0.38426965 0.053932585 1.3483146
0.39545456 0.054545455 1.3636364
0.40227273 0.054545455 1.3636364
0.40909091 0.054545455 1.3636364
0.41590908 0.054545455 1.3636364
0.42272729 0.054545455 1.3636364
-0.2590909 0.061363637 1.3636364
-0.21473685 0.056842104 1.2631578
-0.20842105 0.056842104 1.2631578
-0.20210527 0.056842104 1.2631578
-0.19374999 0.056249999 1.25
-0.1875 0.056249999 1.25
-0.17938145 0.055670105 1.2371134
-0.16969697 0.054545455 1.2121212
-0.16363636 0.054545455 1.2121212
-0.15757576 0.054545455 1.2121212
-0.15000001 0.054000001 1.2
-0.14399999 0.054000001 1.2
-0.13663366 0.053465348 1.1881188
-0.13069306 0.053465348 1.1881188
-0.12475248 0.053465348 1.1881188
-0.11764706 0.052941177 1.1764706
-0.11176471 0.052941177 1.1764706
-0.10588235 0.052941177 1.1764706
-0.1 0.052941177 1.1764706
-0.094117649 0.052941177 1.1764706
-0.088235296 0.052941177 1.1764706
-0.082352944 0.052941177 1.1764706
-0.076470591 0.052941177 1.1764706
-0.070588239 0.052941177 1.1764706
-0.064077668 0.052427184 1.1650486
-0.058252428 0.052427184 1.1650486
-0.052427184 0.052427184 1.1650486
-0.04660194 0.052427184 1.1650486
-0.0407767 0.052427184 1.1650486
-0.034951456 0.052427184 1.1650486
-0.029126214 0.052427184 1.1650486
-0.02330097 0.052427184 1.1650486
-0.017475728 0.052427184 1.1650486
-0.011650485 0.052427184 1.1650486
-0.0058252425 0.052427184 1.1650486
0 0.052941177 1.1764706
0.0058823531 0.052941177 1.1764706
0.011764706 0.052941177 1.1764706
0.01764706 0.052941177 1.1764706
0.023529412 0.052941177 1.1764706
0.029411765 0.052941177 1.1764706
0.035294119 0.052941177 1.1764706
0.04158416 0.053465348 1.1881188
0.047524754 0.053465348 1.1881188
0.054000001 0.054000001 1.2
0.059999999 0.054000001 1.2
0.066 0.054000001 1.2
0.071999997 0.054000001 1.2
0.078000002 0.054000001 1.2
0.083999999 0.054000001 1.2
0.090909094 0.054545455 1.2121212
0.096969694 0.054545455 1.2121212
0.1030303 0.054545455 1.2121212
0.10909091 0.054545455 1.2121212
0.11632653 0.055102039 1.2244898
0.12244898 0.055102039 1.2244898
0.12857144 0.055102039 1.2244898
0.13469388 0.055102039 1.2244898
0.14081633 0.055102039 1.2244898
0.14845361 0.055670105 1.2371134
0.13513513 0.048648648 1.081081
0.14054054 0.048648648 1.081081
0.16701031 0.055670105 1.2371134
0.17142858 0.055102039 1.2244898
0.15263158 0.047368422 1.0526316
0.15789473 0.047368422 1.0526316
0.1631579 0.047368422 1.0526316
0.17142858 0.048214287 1.0714285
0.17678571 0.048214287 1.0714285
0.18214285 0.048214287 1.0714285
0.1875 0.048214287 1.0714285
0.19285715 0.048214287 1.0714285
0.2 0.048648648 1.081081
0.20727272 0.049090911 1.0909091
0.2146789 0.049541283 1.1009175
0.22018349 0.049541283 1.1009175
0.22777778 0.050000001 1.1111112
0.23551401 0.05046729 1.1214954
0.24339622 0.050943397 1.1320754
0.24905661 0.050943397 1.1320754
0.26213592 0.052427184 1.1650486
0.26796117 0.052427184 1.1650486
0.2764706 0.052941177 1.1764706
0.2851485 0.053465348 1.1881188
0.294 0.054000001 1.2
0.30303031 0.054545455 1.2121212
0.31546393 0.055670105 1.2371134
0.32164949 0.055670105 1.2371134
0.33473685 0.056842104 1.2631578
0.34105262 0.056842104 1.2631578
0.34736842 0.056842104 1.2631578
0.36521739 0.058695652 1.3043479
0.38426965 0.060674157 1.3483146
0.39545456 0.061363637 1.3636364
0.40227273 0.061363637 1.3636364
0.40909091 0.061363637 1.3636364
0.41590908 0.061363637 1.3636364
0.42272729 0.061363637 1.3636364
0.42954546 0.061363637 1.3636364
-0.27272728 0.06818182 1.3636364
-0.26590911 0.06818182 1.3636364
-0.2590909 0.06818182 1.3636364
-0.25227273 0.06818182 1.3636364
-0.24545455 0.06818182 1.3636364
-0.22340426 0.063829787 1.2765957
-0.21473685 0.063157894 1.2631578
-0.20842105 0.063157894 1.2631578
-0.20210527 0.063157894 1.2631578
-0.19374999 0.0625 1.25
-0.1875 0.0625 1.25
-0.18125001 0.0625 1.25
-0.16969697 0.060606062 1.2121212
-0.16363636 0.060606062 1.2121212
-0.156 0.059999999 1.2
-0.15000001 0.059999999 1.2
-0.14399999 0.059999999 1.2
-0.13663366 0.059405942 1.1881188
-0.13069306 0.059405942 1.1881188
-0.12475248 0.059405942 1.1881188
-0.11764706 0.05882353 1.1764706
-0.11176471 0.05882353 1.1764706
-0.10588235 0.05882353 1.1764706
-0.1 0.05882353 1.1764706
-0.094117649 0.05882353 1.1764706
-0.088235296 0.05882353 1.1764706
-0.082352944 0.05882353 1.1764706
-0.076470591 0.05882353 1.1764706
-0.069902912 0.058252428 1.1650486
-0.064077668 0.058252428 1.1650486
-0.058252428 0.058252428 1.1650486
-0.052427184 0.058252428 1.1650486
-0.04660194 0.058252428 1.1650486
-0.0407767 0.058252428 1.1650486
-0.034951456 0.058252428 1.1650486
-0.029126214 0.058252428 1.1650486
-0.02330097 0.058252428 1.1650486
-0.017475728 0.058252428 1.1650486
-0.011650485 0.058252428 1.1650486
-0.0058252425 0.058252428 1.1650486
0 0.058252428 1.1650486
0.0058252425 0.058252428 1.1650486
0.011764706 0.05882353 1.1764706
0.01764706 0.05882353 1.1764706
0.023529412 0.05882353 1.1764706
0.029411765 0.05882353 1.1764706
0.035294119 0.05882353 1.1764706
0.04158416 0.059405942 1.1881188
0.047524754 0.059405942 1.1881188
0.053465348 0.059405942 1.1881188
0.059405942 0.059405942 1.1881188
0.066 0.059999999 1.2
0.071999997 0.059999999 1.2
0.078000002 0.059999999 1.2
0.083999999 0.059999999 1.2
0.090909094 0.060606062 1.2121212
0.096969694 0.060606062 1.2121212
0.1030303 0.060606062 1.2121212
0.10909091 0.060606062 1.2121212
0.11515152 0.060606062 1.2121212
0.12244898 0.06122449 1.2244898
0.12989691 0.06185567 1.2371134
0.13608247 0.06185567 1.2371134
0.14226805 0.06185567 1.2371134
0.14845361 0.06185567 1.2371134
0.15463917 0.06185567 1.2371134
0.16082475 0.06185567 1.2371134
0.16701031 0.06185567 1.2371134
0.17142858 0.06122449 1.2244898
0.17755102 0.06122449 1.2244898
0.18367347 0.06122449 1.2244898
0.1631579 0.052631579 1.0526316
0.17678571 0.053571429 1.0714285
0.18214285 0.053571429 1.0714285
0.1875 0.053571429 1.0714285
0.19285715 0.053571429 1.0714285
0.20555556 0.055555556 1.1111112
0.20727272 0.054545455 1.0909091
0.2146789 0.055045873 1.1009175
0.22222222 0.055555556 1.1111112
0.22777778 0.055555556 1.1111112
0.23333333 0.055555556 1.1111112
0.24339622 0.056603774 1.1320754
0.25142857 0.057142857 1.1428572
0.25961539 0.057692308 1.1538461
0.26796117 0.058252428 1.1650486
0.2764706 0.05882353 1.1764706
0.28799999 0.059999999 1.2
0.294 0.059999999 1.2
0.30303031 0.060606062 1.2121212
0.30909091 0.060606062 1.2121212
0.31515151 0.060606062 1.2121212
0.32783505 0.06185567 1.2371134
0.34105262 0.063157894 1.2631578
0.35869566 0.065217391 1.3043479
0.36521739 0.065217391 1.3043479
0.37173912 0.065217391 1.3043479
0.38666666 0.06666667 1.3333334
0.39775282 0.067415729 1.3483146
0.40449437 0.067415729 1.3483146
0.41123596 0.067415729 1.3483146
0.41797754 0.067415729 1.3483146
0.4247191 0.067415729 1.3483146
-0.34736842 0.069473684 1.2631578
-0.31578946 0.069473684 1.2631578
-0.28043479 0.07173913 1.3043479
-0.27272728 0.075000003 1.3636364
-0.26590911 0.075000003 1.3636364
-0.2590909 0.075000003 1.3636364
-0.25227273 0.075000003 1.3636364
-0.24545455 0.075000003 1.3636364
-0.22340426 0.070212767 1.2765957
-0.21702127 0.070212767 1.2765957
-0.20842105 0.069473684 1.2631578
-0.20210527 0.069473684 1.2631578
-0.19578947 0.069473684 1.2631578
-0.1875 0.068750001 1.25
-0.17755102 0.067346938 1.2244898
-0.17142858 0.067346938 1.2244898
-0.162 0.066 1.2
-0.156 0.066 1.2
-0.15000001 0.066 1.2
-0.14257425 0.065346532 1.1881188
-0.13663366 0.065346532 1.1881188
-0.13069306 0.065346532 1.1881188
-0.12352941 0.064705886 1.1764706
-0.11764706 0.064705886 1.1764706
-0.11176471 0.064705886 1.1764706
-0.10588235 0.064705886 1.1764706
-0.1 0.064705886 1.1764706
-0.094117649 0.064705886 1.1764706
-0.088235296 0.064705886 1.1764706
-0.082352944 0.064705886 1.1764706
-0.076470591 0.064705886 1.1764706
-0.069902912 0.064077668 1.1650486
-0.064077668 0.064077668 1.1650486
-0.058252428 0.064077668 1.1650486
-0.052427184 0.064077668 1.1650486
-0.04660194 0.064077668 1.1650486
-0.0407767 0.064077668 1.1650486
-0.034951456 0.064077668 1.1650486
-0.029126214 0.064077668 1.1650486
-0.02330097 0.064077668 1.1650486
-0.017475728 0.064077668 1.1650486
-0.011650485 0.064077668 1.1650486
-0.0058252425 0.064077668 1.1650486
0 0.064077668 1.1650486
0.0058252425 0.064077668 1.1650486
0.011764706 0.064705886 1.1764706
0.01764706 0.064705886 1.1764706
0.023529412 0.064705886 1.1764706
0.029411765 0.064705886 1.1764706
0.035294119 0.064705886 1.1764706
0.04158416 0.065346532 1.1881188
0.047524754 0.065346532 1.1881188
0.053465348 0.065346532 1.1881188
0.059405942 0.065346532 1.1881188
0.066 0.066 1.2
0.071999997 0.066 1.2
0.078000002 0.066 1.2
0.083999999 0.066 1.2
0.090909094 0.06666667 1.2121212
0.096969694 0.06666667 1.2121212
0.1030303 0.06666667 1.2121212
0.10909091 0.06666667 1.2121212
0.11632653 0.067346938 1.2244898
0.12244898 0.067346938 1.2244898
0.12989691 0.068041235 1.2371134
0.13608247 0.068041235 1.2371134
0.14226805 0.068041235 1.2371134
0.14845361 0.068041235 1.2371134
0.15463917 0.068041235 1.2371134
0.16082475 0.068041235 1.2371134
0.16701031 0.068041235 1.2371134
0.17142858 0.067346938 1.2244898
0.17755102 0.067346938 1.2244898
0.18367347 0.067346938 1.2244898
0.18113208 0.062264152 1.1320754
0.18679245 0.062264152 1.1320754
0.19245283 0.062264152 1.1320754
0.1981132 0.062264152 1.1320754
0.20377359 0.062264152 1.1320754
0.20555556 0.061111111 1.1111112
0.21111111 0.061111111 1.1111112
0.21666667 0.061111111 1.1111112
0.22222222 0.061111111 1.1111112
0.22777778 0.061111111 1.1111112
0.23551401 0.061682243 1.1214954
0.24571429 0.062857144 1.1428572
0.25142857 0.062857144 1.1428572
0.25961539 0.063461542 1.1538461
0.26538461 0.063461542 1.1538461
0.27115384 0.063461542 1.1538461
0.28235295 0.064705886 1.1764706
0.294 0.066 1.2
0.30303031 0.06666667 1.2121212
0.30909091 0.06666667 1.2121212
0.31515151 0.06666667 1.2121212
0.32783505 0.068041235 1.2371134
0.33402061 0.068041235 1.2371134
0.35106382 0.070212767 1.2765957
0.36521739 0.07173913 1.3043479
0.37173912 0.07173913 1.3043479
0.38666666 0.07333333 1.3333334
0.39333335 0.07333333 1.3333334
0.40449437 0.074157305 1.3483146
0.41123596 0.074157305 1.3483146
0.41797754 0.074157305 1.3483146
0.4247191 0.074157305 1.3483146
-0.36000001 0.075789474 1.2631578
-0.35368422 0.075789474 1.2631578
-0.34736842 0.075789474 1.2631578
-0.34105262 0.075789474 1.2631578
-0.33473685 0.075789474 1.2631578
-0.32842106 0.075789474 1.2631578
-0.32210526 0.075789474 1.2631578
-0.31578946 0.075789474 1.2631578
-0.30947369 0.075789474 1.2631578
-0.3031579 0.075789474 1.2631578
-0.29052633 0.075789474 1.2631578
-0.29347825 0.078260869 1.3043479
-0.28695652 0.078260869 1.3043479
-0.28043479 0.078260869 1.3043479
-0.27391306 0.078260869 1.3043479
-0.27333334 0.079999998 1.3333334
-0.27272728 0.081818178 1.3636364
-0.26590911 0.081818178 1.3636364
-0.2590909 0.081818178 1.3636364
-0.25227273 0.081818178 1.3636364
-0.24545455 0.081818178 1.3636364
-0.22580644 0.077419356 1.2903225
-0.21702127 0.076595746 1.2765957
-0.2106383 0.076595746 1.2765957
-0.20210527 0.075789474 1.2631578
-0.19578947 0.075789474 1.2631578
-0.18367347 0.073469386 1.2244898
-0.17755102 0.073469386 1.2244898
-0.17142858 0.073469386 1.2244898
-0.16363636 0.07272727 1.2121212
-0.156 0.071999997 1.2
-0.14851485 0.071287125 1.1881188
-0.14257425 0.071287125 1.1881188
-0.13663366 0.071287125 1.1881188
-0.12941177 0.070588239 1.1764706
-0.12352941 0.070588239 1.1764706
-0.11764706 0.070588239 1.1764706
-0.11176471 0.070588239 1.1764706
-0.10588235 0.070588239 1.1764706
-0.1 0.070588239 1.1764706
-0.09320388 0.069902912 1.1650486
-0.087378643 0.069902912 1.1650486
-0.082352944 0.070588239 1.1764706
-0.075728156 0.069902912 1.1650486
-0.069902912 0.069902912 1.1650486
-0.064077668 0.069902912 1.1650486
-0.058252428 0.069902912 1.1650486
-0.052427184 0.069902912 1.1650486
-0.04660194 0.069902912 1.1650486
-0.0407767 0.069902912 1.1650486
-0.034951456 0.069902912 1.1650486
-0.029126214 0.069902912 1.1650486
-0.02330097 0.069902912 1.1650486
-0.017475728 0.069902912 1.1650486
-0.011650485 0.069902912 1.1650486
-0.0058252425 0.069902912 1.1650486
0 0.069902912 1.1650486
0.0058252425 0.069902912 1.1650486
0.011650485 0.069902912 1.1650486
0.01764706 0.070588239 1.1764706
0.023529412 0.070588239 1.1764706
0.029411765 0.070588239 1.1764706
0.035294119 0.070588239 1.1764706
0.04158416 0.071287125 1.1881188
0.047524754 0.071287125 1.1881188
0.053465348 0.071287125 1.1881188
0.059405942 0.071287125 1.1881188
0.065346532 0.071287125 1.1881188
0.071287125 0.071287125 1.1881188
0.078000002 0.071999997 1.2
0.083999999 0.071999997 1.2
0.090909094 0.07272727 1.2121212
0.096969694 0.07272727 1.2121212
0.1030303 0.07272727 1.2121212
0.11020408 0.073469386 1.2244898
0.11632653 0.073469386 1.2244898
0.12244898 0.073469386 1.2244898
0.12857144 0.073469386 1.2244898
0.13608247 0.074226804 1.2371134
0.14226805 0.074226804 1.2371134
0.15000001 0.075000003 1.25
0.15625 0.075000003 1.25
0.16082475 0.074226804 1.2371134
0.16701031 0.074226804 1.2371134
0.17319588 0.074226804 1.2371134
0.17755102 0.073469386 1.2244898
0.18367347 0.073469386 1.2244898
0.18979591 0.073469386 1.2244898
0.19393939 0.07272727 1.2121212
0.18679245 0.067924529 1.1320754
0.19245283 0.067924529 1.1320754
0.1981132 0.067924529 1.1320754
0.20377359 0.067924529 1.1320754
0.20555556 0.06666667 1.1111112
0.21111111 0.06666667 1.1111112
0.21666667 0.06666667 1.1111112
0.22222222 0.06666667 1.1111112
0.22777778 0.06666667 1.1111112
0.23551401 0.067289717 1.1214954
0.2411215 0.067289717 1.1214954
0.25142857 0.068571426 1.1428572
0.25714287 0.068571426 1.1428572
0.26538461 0.069230773 1.1538461
0.27115384 0.069230773 1.1538461
0.28235295 0.070588239 1.1764706
0.28823531 0.070588239 1.1764706
0.30303031 0.07272727 1.2121212
0.30909091 0.07272727 1.2121212
0.31515151 0.07272727 1.2121212
0.32783505 0.074226804 1.2371134
0.33750001 0.075000003 1.25
0.35106382 0.076595746 1.2765957
0.35744682 0.076595746 1.2765957
0.36774194 0.077419356 1.2903225
0.38666666 0.079999998 1.3333334
0.39333335 0.079999998 1.3333334
0.40449437 0.080898874 1.3483146
0.41123596 0.080898874 1.3483146
0.41797754 0.080898874 1.3483146
0.4247191 0.080898874 1.3483146
0.43146068 0.080898874 1.3483146
-0.36000001 0.082105264 1.2631578
-0.35368422 0.082105264 1.2631578
-0.34736842 0.082105264 1.2631578
-0.34105262 0.082105264 1.2631578
-0.33125001 0.081249997 1.25
-0.32499999 0.081249997 1.25
-0.32210526 0.082105264 1.2631578
-0.31578946 0.082105264 1.2631578
-0.30947369 0.082105264 1.2631578
-0.3031579 0.082105264 1.2631578
-0.2968421 0.082105264 1.2631578
-0.29052633 0.082105264 1.2631578
-0.29347825 0.084782608 1.3043479
-0.28695652 0.084782608 1.3043479
-0.28043479 0.084782608 1.3043479
-0.27391306 0.084782608 1.3043479
-0.27333334 0.086666666 1.3333334
-0.26666668 0.086666666 1.3333334
-0.26590911 0.088636361 1.3636364
-0.2590909 0.088636361 1.3636364
-0.25227273 0.088636361 1.3636364
-0.23225807 0.08387097 1.2903225
-0.22580644 0.08387097 1.2903225
-0.21935484 0.08387097 1.2903225
-0.2106383 0.082978725 1.2765957
-0.20425531 0.082978725 1.2765957
-0.19175258 0.080412373 1.2371134
-0.18367347 0.079591833 1.2244898
-0.17755102 0.079591833 1.2244898
-0.16969697 0.078787878 1.2121212
-0.16363636 0.078787878 1.2121212
-0.15757576 0.078787878 1.2121212
-0.14851485 0.077227719 1.1881188
-0.14257425 0.077227719 1.1881188
-0.13663366 0.077227719 1.1881188
-0.12941177 0.076470591 1.1764706
-0.12352941 0.076470591 1.1764706
-0.11764706 0.076470591 1.1764706
-0.11176471 0.076470591 1.1764706
-0.10588235 0.076470591 1.1764706
-0.1 0.076470591 1.1764706
-0.09320388 0.075728156 1.1650486
-0.087378643 0.075728156 1.1650486
-0.0815534 0.075728156 1.1650486
-0.075728156 0.075728156 1.1650486
-0.069902912 0.075728156 1.1650486
-0.064077668 0.075728156 1.1650486
-0.058252428 0.075728156 1.1650486
-0.052427184 0.075728156 1.1650486
-0.04660194 0.075728156 1.1650486
-0.0407767 0.075728156 1.1650486
-0.034951456 0.075728156 1.1650486
-0.029126214 0.075728156 1.1650486
-0.02330097 0.075728156 1.1650486
-0.017475728 0.075728156 1.1650486
-0.011650485 0.075728156 1.1650486
-0.0058252425 0.075728156 1.1650486
0 0.075728156 1.1650486
0.0058252425 0.075728156 1.1650486
0.011650485 0.075728156 1.1650486
0.01764706 0.076470591 1.1764706
0.023529412 0.076470591 1.1764706
0.029411765 0.076470591 1.1764706
0.035294119 0.076470591 1.1764706
0.041176472 0.076470591 1.1764706
0.047524754 0.077227719 1.1881188
0.053465348 0.077227719 1.1881188
0.059405942 0.077227719 1.1881188
0.065346532 0.077227719 1.1881188
0.071999997 0.078000002 1.2
0.078000002 0.078000002 1.2
0.083999999 0.078000002 1.2
0.090000004 0.078000002 1.2
0.096969694 0.078787878 1.2121212
0.1030303 0.078787878 1.2121212
0.10909091 0.078787878 1.2121212
0.11632653 0.079591833 1.2244898
0.12244898 0.079591833 1.2244898
0.12989691 0.080412373 1.2371134
0.13608247 0.080412373 1.2371134
0.14226805 0.080412373 1.2371134
0.15000001 0.081249997 1.25
0.15625 0.081249997 1.25
0.16082475 0.080412373 1.2371134
0.16701031 0.080412373 1.2371134
0.17319588 0.080412373 1.2371134
0.17938145 0.080412373 1.2371134
0.18367347 0.079591833 1.2244898
0.18979591 0.079591833 1.2244898
0.19393939 0.078787878 1.2121212
0.2 0.078787878 1.2121212
0.19428572 0.074285716 1.1428572
0.1981132 0.073584907 1.1320754
0.20377359 0.073584907 1.1320754
0.20943396 0.073584907 1.1320754
0.21111111 0.072222225 1.1111112
0.21666667 0.072222225 1.1111112
0.22222222 0.072222225 1.1111112
0.22777778 0.072222225 1.1111112
0.23333333 0.072222225 1.1111112
0.23888889 0.072222225 1.1111112
0.25142857 0.074285716 1.1428572
0.25714287 0.074285716 1.1428572
0.26285714 0.074285716 1.1428572
0.2737864 0.075728156 1.1650486
0.27961165 0.075728156 1.1650486
0.29696971 0.078787878 1.2121212
0.30303031 0.078787878 1.2121212
0.30909091 0.078787878 1.2121212
0.31515151 0.078787878 1.2121212
0.33125001 0.081249997 1.25
0.33750001 0.081249997 1.25
0.34375 0.081249997 1.25
0.36129034 0.08387097 1.2903225
0.36774194 0.08387097 1.2903225
0.37419355 0.08387097 1.2903225
0.389011 0.085714288 1.3186814
0.3956044 0.085714288 1.3186814
0.41123596 0.087640449 1.3483146
0.41797754 0.087640449 1.3483146
0.4247191 0.087640449 1.3483146
-0.36631578 0.088421054 1.2631578
-0.36000001 0.088421054 1.2631578
-0.35368422 0.088421054 1.2631578
-0.34736842 0.088421054 1.2631578
-0.34105262 0.088421054 1.2631578
-0.33125001 0.087499999 1.25
-0.32499999 0.087499999 1.25
-0.32210526 0.088421054 1.2631578
-0.31578946 0.088421054 1.2631578
-0.30947369 0.088421054 1.2631578
-0.30000001 0.087499999 1.25
-0.2968421 0.088421054 1.2631578
-0.29052633 0.088421054 1.2631578
-0.28421053 0.088421054 1.2631578
-0.28695652 0.091304347 1.3043479
-0.28043479 0.091304347 1.3043479
-0.27391306 0.091304347 1.3043479
-0.27333334 0.093333334 1.3333334
-0.26666668 0.093333334 1.3333334
-0.25999999 0.093333334 1.3333334
-0.25333333 0.093333334 1.3333334
-0.24666667 0.093333334 1.3333334
-0.23999999 0.093333334 1.3333334
-0.22826087 0.091304347 1.3043479
-0.21935484 0.090322584 1.2903225
-0.21290323 0.090322584 1.2903225
-0.19793814 0.086597942 1.2371134
-0.19175258 0.086597942 1.2371134
-0.18556701 0.086597942 1.2371134
-0.17755102 0.085714288 1.2244898
-0.16969697 0.084848486 1.2121212
-0.16363636 0.084848486 1.2121212
-0.156 0.083999999 1.2
-0.14851485 0.08316832 1.1881188
-0.14257425 0.08316832 1.1881188
-0.13663366 0.08316832 1.1881188
-0.12941177 0.082352944 1.1764706
-0.12352941 0.082352944 1.1764706
-0.11764706 0.082352944 1.1764706
-0.11176471 0.082352944 1.1764706
-0.10588235 0.082352944 1.1764706
-0.099029124 0.0815534 1.1650486
-0.09320388 0.0815534 1.1650486
-0.087378643 0.0815534 1.1650486
-0.0815534 0.0815534 1.1650486
-0.075728156 0.0815534 1.1650486
-0.069902912 0.0815534 1.1650486
-0.064077668 0.0815534 1.1650486
-0.057692308 0.080769233 1.1538461
-0.051923078 0.080769233 1.1538461
-0.046153847 0.080769233 1.1538461
-0.0407767 0.0815534 1.1650486
-0.034951456 0.0815534 1.1650486
-0.029126214 0.0815534 1.1650486
-0.02330097 0.0815534 1.1650486
-0.017475728 0.0815534 1.1650486
-0.011650485 0.0815534 1.1650486
-0.0058252425 0.0815534 1.1650486
0 0.0815534 1.1650486
0.0058252425 0.0815534 1.1650486
0.011650485 0.0815534 1.1650486
0.01764706 0.082352944 1.1764706
0.023529412 0.082352944 1.1764706
0.029411765 0.082352944 1.1764706
0.035294119 0.082352944 1.1764706
0.041176472 0.082352944 1.1764706
0.047058824 0.082352944 1.1764706
0.052941177 0.082352944 1.1764706
0.059405942 0.08316832 1.1881188
0.065346532 0.08316832 1.1881188
0.071287125 0.08316832 1.1881188
0.078000002 0.083999999 1.2
0.083999999 0.083999999 1.2
0.090000004 0.083999999 1.2
0.096000001 0.083999999 1.2
0.1030303 0.084848486 1.2121212
0.10909091 0.084848486 1.2121212
0.11632653 0.085714288 1.2244898
0.12244898 0.085714288 1.2244898
0.12989691 0.086597942 1.2371134
0.13608247 0.086597942 1.2371134
0.14226805 0.086597942 1.2371134
0.15000001 0.087499999 1.25
0.15625 0.087499999 1.25
0.16249999 0.087499999 1.25
0.16701031 0.086597942 1.2371134
0.17319588 0.086597942 1.2371134
0.17938145 0.086597942 1.2371134
0.18367347 0.085714288 1.2244898
0.18979591 0.085714288 1.2244898
0.19393939 0.084848486 1.2121212
0.2 0.084848486 1.2121212
0.19428572 0.079999998 1.1428572
0.2 0.079999998 1.1428572
0.20377359 0.079245284 1.1320754
0.20747663 0.078504674 1.1214954
0.21308412 0.078504674 1.1214954
0.21666667 0.077777781 1.1111112
0.22222222 0.077777781 1.1111112
0.22777778 0.077777781 1.1111112
0.23333333 0.077777781 1.1111112
0.2411215 0.078504674 1.1214954
0.24905661 0.079245284 1.1320754
0.25714287 0.079999998 1.1428572
0.26796117 0.0815534 1.1650486
0.2737864 0.0815534 1.1650486
0.27961165 0.0815534 1.1650486
0.28823531 0.082352944 1.1764706
0.30303031 0.084848486 1.2121212
0.30909091 0.084848486 1.2121212
0.31836733 0.085714288 1.2244898
0.3244898 0.085714288 1.2244898
0.33750001 0.087499999 1.25
0.34375 0.087499999 1.25
0.35368422 0.088421054 1.2631578
0.36774194 0.090322584 1.2903225
0.37419355 0.090322584 1.2903225
0.389011 0.092307694 1.3186814
0.40000001 0.093333334 1.3333334
0.40666667 0.093333334 1.3333334
0.41333333 0.093333334 1.3333334
0.4247191 0.094382025 1.3483146
-0.36250001 0.09375 1.25
-0.36000001 0.094736844 1.2631578
-0.35368422 0.094736844 1.2631578
-0.34736842 0.094736844 1.2631578
-0.33750001 0.09375 1.25
-0.33125001 0.09375 1.25
-0.32499999 0.09375 1.25
-0.31874999 0.09375 1.25
-0.31578946 0.094736844 1.2631578
-0.30625001 0.09375 1.25
-0.30000001 0.09375 1.25
-0.2968421 0.094736844 1.2631578
-0.29052633 0.094736844 1.2631578
-0.28421053 0.094736844 1.2631578
-0.28387097 0.096774191 1.2903225
-0.27741936 0.096774191 1.2903225
-0.27391306 0.097826086 1.3043479
-0.26739129 0.097826086 1.3043479
-0.26666668 0.1 1.3333334
-0.25999999 0.1 1.3333334
-0.25333333 0.1 1.3333334
-0.24666667 0.1 1.3333334
-0.23999999 0.1 1.3333334
-0.22826087 0.097826086 1.3043479
-0.22173913 0.097826086 1.3043479
-0.20625 0.09375 1.25
-0.2 0.09375 1.25
-0.19175258 0.092783503 1.2371134
-0.18556701 0.092783503 1.2371134
-0.17399999 0.090000004 1.2
-0.168 0.090000004 1.2
-0.162 0.090000004 1.2
-0.156 0.090000004 1.2
-0.15000001 0.090000004 1.2
-0.14257425 0.089108914 1.1881188
-0.13663366 0.089108914 1.1881188
-0.13069306 0.089108914 1.1881188
-0.12352941 0.088235296 1.1764706
-0.11764706 0.088235296 1.1764706
-0.11176471 0.088235296 1.1764706
-0.10485437 0.087378643 1.1650486
-0.099029124 0.087378643 1.1650486
-0.09320388 0.087378643 1.1650486
-0.087378643 0.087378643 1.1650486
-0.0815534 0.087378643 1.1650486
-0.075728156 0.087378643 1.1650486
-0.069902912 0.087378643 1.1650486
-0.064077668 0.087378643 1.1650486
-0.057692308 0.086538464 1.1538461
-0.051923078 0.086538464 1.1538461
-0.046153847 0.086538464 1.1538461
-0.040384617 0.086538464 1.1538461
-0.034615386 0.086538464 1.1538461
-0.029126214 0.087378643 1.1650486
-0.02330097 0.087378643 1.1650486
-0.017475728 0.087378643 1.1650486
-0.011650485 0.087378643 1.1650486
-0.0058252425 0.087378643 1.1650486
0 0.087378643 1.1650486
0.0058252425 0.087378643 1.1650486
0.011650485 0.087378643 1.1650486
0.017475728 0.087378643 1.1650486
0.023529412 0.088235296 1.1764706
0.029411765 0.088235296 1.1764706
0.035294119 0.088235296 1.1764706
0.041176472 0.088235296 1.1764706
0.047058824 0.088235296 1.1764706
0.052941177 0.088235296 1.1764706
0.059405942 0.089108914 1.1881188
0.065346532 0.089108914 1.1881188
0.071287125 0.089108914 1.1881188
0.077227719 0.089108914 1.1881188
0.083999999 0.090000004 1.2
0.090000004 0.090000004 1.2
0.096000001 0.090000004 1.2
0.102 0.090000004 1.2
0.10909091 0.090909094 1.2121212
0.11632653 0.091836736 1.2244898
0.12244898 0.091836736 1.2244898
0.12857144 0.091836736 1.2244898
0.13608247 0.092783503 1.2371134
0.14226805 0.092783503 1.2371134
0.15000001 0.09375 1.25
0.15625 0.09375 1.25
0.16249999 0.09375 1.25
0.16875 0.09375 1.25
0.17319588 0.092783503 1.2371134
0.17938145 0.092783503 1.2371134
0.18367347 0.091836736 1.2244898
0.18979591 0.091836736 1.2244898
0.19393939 0.090909094 1.2121212
0.2 0.090909094 1.2121212
0.19428572 0.085714288 1.1428572
0.2 0.085714288 1.1428572
0.20571429 0.085714288 1.1428572
0.20747663 0.084112152 1.1214954
0.21308412 0.084112152 1.1214954
0.21869159 0.084112152 1.1214954
0.22222222 0.083333336 1.1111112
0.22777778 0.083333336 1.1111112
0.23333333 0.083333336 1.1111112
0.2411215 0.084112152 1.1214954
0.24905661 0.084905662 1.1320754
0.25471699 0.084905662 1.1320754
0.26796117 0.087378643 1.1650486
0.2737864 0.087378643 1.1650486
0.28235295 0.088235296 1.1764706
0.28823531 0.088235296 1.1764706
0.29411766 0.088235296 1.1764706
0.31224489 0.091836736 1.2244898
0.31836733 0.091836736 1.2244898
0.3244898 0.091836736 1.2244898
0.33750001 0.09375 1.25
0.34736842 0.094736844 1.2631578
0.35368422 0.094736844 1.2631578
0.36000001 0.094736844 1.2631578
0.37419355 0.096774191 1.2903225
0.38064516 0.096774191 1.2903225
0.3956044 0.0989011 1.3186814
0.40219781 0.0989011 1.3186814
0.40879121 0.0989011 1.3186814
0.41538462 0.0989011 1.3186814
-0.37894738 0.10105263 1.2631578
-0.37263158 0.10105263 1.2631578
-0.36631578 0.10105263 1.2631578
-0.35624999 0.1 1.25
-0.34999999 0.1 1.25
-0.34375 0.1 1.25
-0.33750001 0.1 1.25
-0.33125001 0.1 1.25
-0.32499999 0.1 1.25
-0.31874999 0.1 1.25
-0.3125 0.1 1.25
-0.30625001 0.1 1.25
-0.30000001 0.1 1.25
-0.2968421 0.10105263 1.2631578
-0.29052633 0.10105263 1.2631578
-0.28421053 0.10105263 1.2631578
-0.28387097 0.1032258 1.2903225
-0.27741936 0.1032258 1.2903225
-0.27391306 0.10434783 1.3043479
-0.26739129 0.10434783 1.3043479
-0.26086956 0.10434783 1.3043479
-0.25999999 0.10666667 1.3333334
-0.25333333 0.10666667 1.3333334
-0.24666667 0.10666667 1.3333334
-0.23478261 0.10434783 1.3043479
-0.22826087 0.10434783 1.3043479
-0.21250001 0.1 1.25
-0.20625 0.1 1.25
-0.2 0.1 1.25
-0.19374999 0.1 1.25
-0.18181819 0.096969694 1.2121212
-0.17575757 0.096969694 1.2121212
-0.168 0.096000001 1.2
-0.162 0.096000001 1.2
-0.156 0.096000001 1.2
-0.14851485 0.095049508 1.1881188
-0.14257425 0.095049508 1.1881188
-0.13663366 0.095049508 1.1881188
-0.12941177 0.094117649 1.1764706
-0.12352941 0.094117649 1.1764706
-0.11764706 0.094117649 1.1764706
-0.11176471 0.094117649 1.1764706
-0.10485437 0.09320388 1.1650486
-0.099029124 0.09320388 1.1650486
-0.09320388 0.09320388 1.1650486
-0.087378643 0.09320388 1.1650486
-0.0815534 0.09320388 1.1650486
-0.075728156 0.09320388 1.1650486
-0.069902912 0.09320388 1.1650486
-0.063461542 0.092307694 1.1538461
-0.057692308 0.092307694 1.1538461
-0.051923078 0.092307694 1.1538461
-0.046153847 0.092307694 1.1538461
-0.040384617 0.092307694 1.1538461
-0.034615386 0.092307694 1.1538461
-0.028846154 0.092307694 1.1538461
-0.02330097 0.09320388 1.1650486
-0.017475728 0.09320388 1.1650486
-0.011650485 0.09320388 1.1650486
-0.0058252425 0.09320388 1.1650486
0 0.09320388 1.1650486
0.0058252425 0.09320388 1.1650486
0.011650485 0.09320388 1.1650486
0.017475728 0.09320388 1.1650486
0.02330097 0.09320388 1.1650486
0.029411765 0.094117649 1.1764706
0.035294119 0.094117649 1.1764706
0.041176472 0.094117649 1.1764706
0.047058824 0.094117649 1.1764706
0.053465348 0.095049508 1.1881188
0.059405942 0.095049508 1.1881188
0.065346532 0.095049508 1.1881188
0.071287125 0.095049508 1.1881188
0.077227719 0.095049508 1.1881188
0.083999999 0.096000001 1.2
0.090000004 0.096000001 1.2
0.096000001 0.096000001 1.2
0.102 0.096000001 1.2
0.10909091 0.096969694 1.2121212
0.11515152 0.096969694 1.2121212
0.12244898 0.097959183 1.2244898
0.12857144 0.097959183 1.2244898
0.13469388 0.097959183 1.2244898
0.14226805 0.098969072 1.2371134
0.15000001 0.1 1.25
0.15625 0.1 1.25
0.16249999 0.1 1.25
0.16875 0.1 1.25
0.175 0.1 1.25
0.17938145 0.098969072 1.2371134
0.18367347 0.097959183 1.2244898
0.18979591 0.097959183 1.2244898
0.19591837 0.097959183 1.2244898
0.20204082 0.097959183 1.2244898
0.19428572 0.09142857 1.1428572
0.2 0.09142857 1.1428572
0.20571429 0.09142857 1.1428572
0.20747663 0.089719623 1.1214954
0.21308412 0.089719623 1.1214954
0.21869159 0.089719623 1.1214954
0.22222222 0.088888891 1.1111112
0.22777778 0.088888891 1.1111112
0.23333333 0.088888891 1.1111112
0.23888889 0.088888891 1.1111112
0.24905661 0.090566039 1.1320754
0.25471699 0.090566039 1.1320754
0.26037735 0.090566039 1.1320754
0.27115384 0.092307694 1.1538461
0.28235295 0.094117649 1.1764706
0.28823531 0.094117649 1.1764706
0.29411766 0.094117649 1.1764706
0.30909091 0.096969694 1.2121212
0.31515151 0.096969694 1.2121212
0.3244898 0.097959183 1.2244898
0.33750001 0.1 1.25
0.34375 0.1 1.25
0.35368422 0.10105263 1.2631578
0.36382979 0.10212766 1.2765957
0.37419355 0.1032258 1.2903225
0.38064516 0.1032258 1.2903225
0.3956044 0.10549451 1.3186814
0.40219781 0.10549451 1.3186814
0.40879121 0.10549451 1.3186814
-0.37894738 0.10736842 1.2631578
-0.37263158 0.10736842 1.2631578
-0.36631578 0.10736842 1.2631578
-0.35624999 0.10625 1.25
-0.34999999 0.10625 1.25
-0.34375 0.10625 1.25
-0.33402061 0.10515464 1.2371134
-0.33125001 0.10625 1.25
-0.32164949 0.10515464 1.2371134
-0.31874999 0.10625 1.25
-0.3125 0.10625 1.25
-0.30625001 0.10625 1.25
-0.30000001 0.10625 1.25
-0.29374999 0.10625 1.25
-0.28749999 0.10625 1.25
-0.28125 0.10625 1.25
-0.28085107 0.10851064 1.2765957
-0.27446809 0.10851064 1.2765957
-0.26808509 0.10851064 1.2765957
-0.26451612 0.10967742 1.2903225
-0.25806451 0.10967742 1.2903225
-0.25434783 0.11086956 1.3043479
-0.24782608 0.11086956 1.3043479
-0.24130435 0.11086956 1.3043479
-0.23478261 0.11086956 1.3043479
-0.22580644 0.10967742 1.2903225
-0.21473685 0.10736842 1.2631578
-0.20625 0.10625 1.25
-0.19793814 0.10515464 1.2371134
-0.19175258 0.10515464 1.2371134
-0.18181819 0.1030303 1.2121212
-0.17575757 0.1030303 1.2121212
-0.168 0.102 1.2
-0.162 0.102 1.2
-0.15445544 0.1009901 1.1881188
-0.14851485 0.1009901 1.1881188
-0.14257425 0.1009901 1.1881188
-0.13529412 0.1 1.1764706
-0.12941177 0.1 1.1764706
-0.12352941 0.1 1.1764706
-0.11764706 0.1 1.1764706
-0.11067961 0.099029124 1.1650486
-0.10485437 0.099029124 1.1650486
-0.099029124 0.099029124 1.1650486
-0.09320388 0.099029124 1.1650486
-0.087378643 0.099029124 1.1650486
-0.0815534 0.099029124 1.1650486
-0.075728156 0.099029124 1.1650486
-0.069902912 0.099029124 1.1650486
-0.063461542 0.098076925 1.1538461
-0.057692308 0.098076925 1.1538461
-0.051923078 0.098076925 1.1538461
-0.046153847 0.098076925 1.1538461
-0.040384617 0.098076925 1.1538461
-0.034615386 0.098076925 1.1538461
-0.028846154 0.098076925 1.1538461
-0.023076924 0.098076925 1.1538461
-0.017475728 0.099029124 1.1650486
-0.011650485 0.099029124 1.1650486
-0.0058252425 0.099029124 1.1650486
0 0.099029124 1.1650486
0.0058252425 0.099029124 1.1650486
0.011650485 0.099029124 1.1650486
0.017475728 0.099029124 1.1650486
0.02330097 0.099029124 1.1650486
0.029411765 0.1 1.1764706
0.035294119 0.1 1.1764706
0.041176472 0.1 1.1764706
0.047058824 0.1 1.1764706
0.053465348 0.1009901 1.1881188
0.059405942 0.1009901 1.1881188
0.065346532 0.1009901 1.1881188
0.071287125 0.1009901 1.1881188
0.077227719 0.1009901 1.1881188
0.08316832 0.1009901 1.1881188
0.090000004 0.102 1.2
0.096000001 0.102 1.2
0.1030303 0.1030303 1.2121212
0.10909091 0.1030303 1.2121212
0.11515152 0.1030303 1.2121212
0.12244898 0.10408163 1.2244898
0.12857144 0.10408163 1.2244898
0.13608247 0.10515464 1.2371134
0.14226805 0.10515464 1.2371134
0.15000001 0.10625 1.25
0.15625 0.10625 1.25
0.16249999 0.10625 1.25
0.16875 0.10625 1.25
0.175 0.10625 1.25
0.18125001 0.10625 1.25
0.18556701 0.10515464 1.2371134
0.19175258 0.10515464 1.2371134
0.19591837 0.10408163 1.2244898
0.20204082 0.10408163 1.2244898
0.19428572 0.09714286 1.1428572
0.2 0.09714286 1.1428572
0.20571429 0.09714286 1.1428572
0.20943396 0.096226417 1.1320754
0.21308412 0.095327102 1.1214954
0.21666667 0.094444446 1.1111112
0.22222222 0.094444446 1.1111112
0.22777778 0.094444446 1.1111112
0.23333333 0.094444446 1.1111112
0.2411215 0.095327102 1.1214954
0.24905661 0.096226417 1.1320754
0.25471699 0.096226417 1.1320754
0.26037735 0.096226417 1.1320754
0.27115384 0.098076925 1.1538461
0.27692309 0.098076925 1.1538461
0.28823531 0.1 1.1764706
0.29411766 0.1 1.1764706
0.30909091 0.1030303 1.2121212
0.31515151 0.1030303 1.2121212
0.3244898 0.10408163 1.2244898
0.33402061 0.10515464 1.2371134
0.34375 0.10625 1.25
0.35368422 0.10736842 1.2631578
0.36382979 0.10851064 1.2765957
0.37021276 0.10851064 1.2765957
0.37659574 0.10851064 1.2765957
0.3956044 0.11208791 1.3186814
0.40219781 0.11208791 1.3186814
0.40879121 0.11208791 1.3186814
-0.38526314 0.11368421 1.2631578
-0.37894738 0.11368421 1.2631578
-0.37263158 0.11368421 1.2631578
-0.36631578 0.11368421 1.2631578
-0.36000001 0.11368421 1.2631578
-0.34999999 0.1125 1.25
-0.34375 0.1125 1.25
-0.33402061 0.11134021 1.2371134
-0.32783505 0.11134021 1.2371134
-0.32164949 0.11134021 1.2371134
-0.31546393 0.11134021 1.2371134
-0.3125 0.1125 1.25
-0.30625001 0.1125 1.25
-0.30000001 0.1125 1.25
-0.29374999 0.1125 1.25
-0.28749999 0.1125 1.25
-0.28125 0.1125 1.25
-0.27789474 0.11368421 1.2631578
-0.27446809 0.11489362 1.2765957
-0.26808509 0.11489362 1.2765957
-0.26451612 0.11612903 1.2903225
-0.25806451 0.11612903 1.2903225
-0.2516129 0.11612903 1.2903225
-0.24782608 0.1173913 1.3043479
-0.24130435 0.1173913 1.3043479
-0.23478261 0.1173913 1.3043479
-0.22580644 0.11612903 1.2903225
-0.21473685 0.11368421 1.2631578
-0.20625 0.1125 1.25
-0.19793814 0.11134021 1.2371134
-0.19175258 0.11134021 1.2371134
-0.18181819 0.10909091 1.2121212
-0.17575757 0.10909091 1.2121212
-0.168 0.108 1.2
-0.16039604 0.1069307 1.1881188
-0.15445544 0.1069307 1.1881188
-0.14851485 0.1069307 1.1881188
-0.14117648 0.10588235 1.1764706
-0.13529412 0.10588235 1.1764706
-0.12941177 0.10588235 1.1764706
-0.12352941 0.10588235 1.1764706
-0.11650486 0.10485437 1.1650486
-0.11067961 0.10485437 1.1650486
-0.10485437 0.10485437 1.1650486
-0.099029124 0.10485437 1.1650486
-0.09320388 0.10485437 1.1650486
-0.087378643 0.10485437 1.1650486
-0.0815534 0.10485437 1.1650486
-0.075728156 0.10485437 1.1650486
-0.069230773 0.10384616 1.1538461
-0.063461542 0.10384616 1.1538461
-0.057692308 0.10384616 1.1538461
-0.051923078 0.10384616 1.1538461
-0.046153847 0.10384616 1.1538461
-0.040384617 0.10384616 1.1538461
-0.034615386 0.10384616 1.1538461
-0.028846154 0.10384616 1.1538461
-0.023076924 0.10384616 1.1538461
-0.017307693 0.10384616 1.1538461
-0.011650485 0.10485437 1.1650486
-0.0058252425 0.10485437 1.1650486
0 0.10485437 1.1650486
0.0058252425 0.10485437 1.1650486
0.011650485 0.10485437 1.1650486
0.017475728 0.10485437 1.1650486
0.02330097 0.10485437 1.1650486
0.029126214 0.10485437 1.1650486
0.035294119 0.10588235 1.1764706
0.041176472 0.10588235 1.1764706
0.047058824 0.10588235 1.1764706
0.052941177 0.10588235 1.1764706
0.05882353 0.10588235 1.1764706
0.065346532 0.1069307 1.1881188
0.071287125 0.1069307 1.1881188
0.077227719 0.1069307 1.1881188
0.08316832 0.1069307 1.1881188
0.090000004 0.108 1.2
0.096000001 0.108 1.2
0.1030303 0.10909091 1.2121212
0.10909091 0.10909091 1.2121212
