# .PCD v0.7 - Point Cloud Data file format
VERSION 0.7
FIELDS x y z
SIZE 4 4 4
TYPE F F F
COUNT 1 1 1
WIDTH 1437
HEIGHT 1
VIEWPOINT 0 0 0 1 0 0 0
POINTS 1437
DATA ascii
-0.079120882 -0.17142858 1.3186814
-0.072527476 -0.17142858 1.3186814
-0.065934069 -0.17142858 1.3186814
-0.05934066 -0.17142858 1.3186814
-0.052747253 -0.17142858 1.3186814
-0.046153847 -0.17142858 1.3186814
0.015789473 -0.1368421 1.0526316
0.021052632 -0.1368421 1.0526316
0.02631579 -0.1368421 1.0526316
0.031578947 -0.1368421 1.0526316
0.036842104 -0.1368421 1.0526316
0.047524754 -0.15445544 1.1881188
0.053465348 -0.15445544 1.1881188
0.058252428 -0.15145631 1.1650486
0.064077668 -0.15145631 1.1650486
0.069902912 -0.15145631 1.1650486
0.07090909 -0.14181818 1.0909091
0.080769233 -0.15000001 1.1538461
0.086538464 -0.15000001 1.1538461
0.09142857 -0.14857143 1.1428572
0.09714286 -0.14857143 1.1428572
0.10285714 -0.14857143 1.1428572
0.10857143 -0.14857143 1.1428572
0.11320755 -0.14716981 1.1320754
0.11886793 -0.14716981 1.1320754
0.1245283 -0.14716981 1.1320754
0.13018867 -0.14716981 1.1320754
0.13584906 -0.14716981 1.1320754
0.14150943 -0.14716981 1.1320754
0.14716981 -0.14716981 1.1320754
0.15283018 -0.14716981 1.1320754
0.15849057 -0.14716981 1.1320754
0.16415094 -0.14716981 1.1320754
0.16981132 -0.14716981 1.1320754
0.17547169 -0.14716981 1.1320754
0.17943925 -0.14579439 1.1214954
0.18504673 -0.14579439 1.1214954
0.1906542 -0.14579439 1.1214954
0.19626169 -0.14579439 1.1214954
0.20186916 -0.14579439 1.1214954
0.20943396 -0.14716981 1.1320754
0.21509434 -0.14716981 1.1320754
0.22285715 -0.14857143 1.1428572
0.22857143 -0.14857143 1.1428572
0.23428571 -0.14857143 1.1428572
0.23999999 -0.14857143 1.1428572
0.25048545 -0.15145631 1.1650486
0.25631067 -0.15145631 1.1650486
0.26213592 -0.15145631 1.1650486
0.27599999 -0.156 1.2
0.28200001 -0.156 1.2
0.28235295 -0.15294118 1.1764706
0.30625001 -0.16249999 1.25
0.3125 -0.16249999 1.25
0.31874999 -0.16249999 1.25
0.32499999 -0.16249999 1.25
0.36129034 -0.16774194 1.2903225
-0.40000001 -0.1923077 1.5384616
-0.3923077 -0.1923077 1.5384616
-0.38461539 -0.1923077 1.5384616
-0.37692308 -0.1923077 1.5384616
-0.36923078 -0.1923077 1.5384616
-0.35696203 -0.18987341 1.5189873
-0.34936708 -0.18987341 1.5189873
-0.34177214 -0.18987341 1.5189873
-0.30344829 -0.1724138 1.3793104
-0.29318181 -0.17045455 1.3636364
-0.28636363 -0.17045455 1.3636364
-0.27954546 -0.17045455 1.3636364
-0.27272728 -0.17045455 1.3636364
-0.25999999 -0.16666667 1.3333334
-0.25333333 -0.16666667 1.3333334
-0.24666667 -0.16666667 1.3333334
-0.23999999 -0.16666667 1.3333334
-0.23333333 -0.16666667 1.3333334
-0.22666667 -0.16666667 1.3333334
-0.22 -0.16666667 1.3333334
-0.21333334 -0.16666667 1.3333334
-0.20439561 -0.16483517 1.3186814
-0.1978022 -0.16483517 1.3186814
-0.19120879 -0.16483517 1.3186814
-0.18461539 -0.16483517 1.3186814
-0.17802198 -0.16483517 1.3186814
-0.17142858 -0.16483517 1.3186814
-0.16483517 -0.16483517 1.3186814
-0.15824176 -0.16483517 1.3186814
-0.15164836 -0.16483517 1.3186814
-0.14505495 -0.16483517 1.3186814
-0.13695653 -0.16304348 1.3043479
-0.13043478 -0.16304348 1.3043479
-0.12391304 -0.16304348 1.3043479
-0.1173913 -0.16304348 1.3043479
-0.11086956 -0.16304348 1.3043479
-0.10434783 -0.16304348 1.3043479
-0.097826086 -0.16304348 1.3043479
-0.091304347 -0.16304348 1.3043479
-0.085714288 -0.16483517 1.3186814
-0.079120882 -0.16483517 1.3186814
-0.072527476 -0.16483517 1.3186814
-0.065934069 -0.16483517 1.3186814
-0.05934066 -0.16483517 1.3186814
-0.052747253 -0.16483517 1.3186814
-0.046153847 -0.16483517 1.3186814
-0.015652174 -0.13043478 1.0434783
0.0052173915 -0.13043478 1.0434783
0.010434783 -0.13043478 1.0434783
0.015652174 -0.13043478 1.0434783
0.021052632 -0.13157895 1.0526316
0.02631579 -0.13157895 1.0526316
0.031578947 -0.13157895 1.0526316
0.036842104 -0.13157895 1.0526316
0.042477876 -0.13274336 1.0619469
0.04778761 -0.13274336 1.0619469
0.053097345 -0.13274336 1.0619469
0.064077668 -0.14563107 1.1650486
0.065454543 -0.13636364 1.0909091
0.07090909 -0.13636364 1.0909091
0.076363638 -0.13636364 1.0909091
0.085714288 -0.14285715 1.1428572
0.09142857 -0.14285715 1.1428572
0.096226417 -0.14150943 1.1320754
0.10285714 -0.14285715 1.1428572
0.10754717 -0.14150943 1.1320754
0.11320755 -0.14150943 1.1320754
0.11886793 -0.14150943 1.1320754
0.1245283 -0.14150943 1.1320754
0.13018867 -0.14150943 1.1320754
0.13584906 -0.14150943 1.1320754
0.14150943 -0.14150943 1.1320754
0.14716981 -0.14150943 1.1320754
0.15283018 -0.14150943 1.1320754
0.15849057 -0.14150943 1.1320754
0.16261682 -0.14018692 1.1214954
0.1682243 -0.14018692 1.1214954
0.17383178 -0.14018692 1.1214954
0.17943925 -0.14018692 1.1214954
0.18504673 -0.14018692 1.1214954
0.1906542 -0.14018692 1.1214954
0.19626169 -0.14018692 1.1214954
0.20186916 -0.14018692 1.1214954
0.20747663 -0.14018692 1.1214954
0.21308412 -0.14018692 1.1214954
0.22075471 -0.14150943 1.1320754
0.2264151 -0.14150943 1.1320754
0.23428571 -0.14285715 1.1428572
0.23773585 -0.14150943 1.1320754
0.24807692 -0.14423077 1.1538461
0.25384617 -0.14423077 1.1538461
0.26213592 -0.14563107 1.1650486
0.26796117 -0.14563107 1.1650486
0.2764706 -0.14705883 1.1764706
0.28235295 -0.14705883 1.1764706
0.28823531 -0.14705883 1.1764706
0.29411766 -0.14705883 1.1764706
0.30000001 -0.14705883 1.1764706
0.30588236 -0.14705883 1.1764706
0.31176472 -0.14705883 1.1764706
0.34838709 -0.16129032 1.2903225
0.3548387 -0.16129032 1.2903225
0.36129034 -0.16129032 1.2903225
0.36774194 -0.16129032 1.2903225
0.37419355 -0.16129032 1.2903225
-0.40000001 -0.18461539 1.5384616
-0.3923077 -0.18461539 1.5384616
-0.38461539 -0.18461539 1.5384616
-0.37692308 -0.18461539 1.5384616
-0.36923078 -0.18461539 1.5384616
-0.36153847 -0.18461539 1.5384616
-0.34936708 -0.18227848 1.5189873
-0.31034482 -0.16551724 1.3793104
-0.30344829 -0.16551724 1.3793104
-0.29655173 -0.16551724 1.3793104
-0.28636363 -0.16363636 1.3636364
-0.27954546 -0.16363636 1.3636364
-0.26666668 -0.16 1.3333334
-0.25999999 -0.16 1.3333334
-0.25333333 -0.16 1.3333334
-0.24666667 -0.16 1.3333334
-0.23736264 -0.15824176 1.3186814
-0.23076923 -0.15824176 1.3186814
-0.22417583 -0.15824176 1.3186814
-0.22 -0.16 1.3333334
-0.20869565 -0.15652174 1.3043479
-0.20439561 -0.15824176 1.3186814
-0.1978022 -0.15824176 1.3186814
-0.19120879 -0.15824176 1.3186814
-0.18461539 -0.15824176 1.3186814
-0.17608696 -0.15652174 1.3043479
-0.16956522 -0.15652174 1.3043479
-0.16483517 -0.15824176 1.3186814
-0.15652174 -0.15652174 1.3043479
-0.15000001 -0.15652174 1.3043479
-0.14347826 -0.15652174 1.3043479
-0.13695653 -0.15652174 1.3043479
-0.13043478 -0.15652174 1.3043479
-0.12391304 -0.15652174 1.3043479
-0.1173913 -0.15652174 1.3043479
-0.11086956 -0.15652174 1.3043479
-0.10434783 -0.15652174 1.3043479
-0.097826086 -0.15652174 1.3043479
-0.091304347 -0.15652174 1.3043479
-0.084782608 -0.15652174 1.3043479
-0.079120882 -0.15824176 1.3186814
-0.072527476 -0.15824176 1.3186814
-0.065934069 -0.15824176 1.3186814
-0.05934066 -0.15824176 1.3186814
-0.052747253 -0.15824176 1.3186814
-0.046153847 -0.15824176 1.3186814
-0.039560441 -0.15824176 1.3186814
-0.026086956 -0.12521739 1.0434783
-0.020869566 -0.12521739 1.0434783
-0.015652174 -0.12521739 1.0434783
-0.010434783 -0.12521739 1.0434783
-0.0052173915 -0.12521739 1.0434783
0 -0.12521739 1.0434783
0.0052173915 -0.12521739 1.0434783
0.010434783 -0.12521739 1.0434783
0.015652174 -0.12521739 1.0434783
0.020869566 -0.12521739 1.0434783
0.026086956 -0.12521739 1.0434783
0.031578947 -0.12631579 1.0526316
0.036842104 -0.12631579 1.0526316
0.042477876 -0.12743363 1.0619469
0.04778761 -0.12743363 1.0619469
0.053097345 -0.12743363 1.0619469
0.057391305 -0.12521739 1.0434783
0.063157894 -0.12631579 1.0526316
0.07090909 -0.13090909 1.0909091
0.076363638 -0.13090909 1.0909091
0.085714288 -0.13714285 1.1428572
0.085714288 -0.12857144 1.0714285
0.096226417 -0.13584906 1.1320754
0.10188679 -0.13584906 1.1320754
0.10754717 -0.13584906 1.1320754
0.11320755 -0.13584906 1.1320754
0.11886793 -0.13584906 1.1320754
0.12336449 -0.13457943 1.1214954
0.12897196 -0.13457943 1.1214954
0.13584906 -0.13584906 1.1320754
0.14150943 -0.13584906 1.1320754
0.14716981 -0.13584906 1.1320754
0.15140186 -0.13457943 1.1214954
0.15700935 -0.13457943 1.1214954
0.16261682 -0.13457943 1.1214954
0.1682243 -0.13457943 1.1214954
0.17383178 -0.13457943 1.1214954
0.17943925 -0.13457943 1.1214954
0.18504673 -0.13457943 1.1214954
0.1906542 -0.13457943 1.1214954
0.19626169 -0.13457943 1.1214954
0.20186916 -0.13457943 1.1214954
0.20747663 -0.13457943 1.1214954
0.21308412 -0.13457943 1.1214954
0.21869159 -0.13457943 1.1214954
0.2264151 -0.13584906 1.1320754
0.23207547 -0.13584906 1.1320754
0.23773585 -0.13584906 1.1320754
0.24571429 -0.13714285 1.1428572
0.25384617 -0.13846155 1.1538461
0.25961539 -0.13846155 1.1538461
0.26796117 -0.13980582 1.1650486
0.2737864 -0.13980582 1.1650486
0.28235295 -0.14117648 1.1764706
0.28823531 -0.14117648 1.1764706
0.29411766 -0.14117648 1.1764706
0.30000001 -0.14117648 1.1764706
0.30588236 -0.14117648 1.1764706
0.31485149 -0.14257425 1.1881188
0.32079208 -0.14257425 1.1881188
0.3548387 -0.15483871 1.2903225
0.36129034 -0.15483871 1.2903225
0.36774194 -0.15483871 1.2903225
0.37419355 -0.15483871 1.2903225
-0.3923077 -0.17692308 1.5384616
-0.38461539 -0.17692308 1.5384616
-0.37692308 -0.17692308 1.5384616
-0.36923078 -0.17692308 1.5384616
-0.36153847 -0.17692308 1.5384616
-0.31363636 -0.15681818 1.3636364
-0.30681819 -0.15681818 1.3636364
-0.30344829 -0.15862069 1.3793104
-0.29655173 -0.15862069 1.3793104
-0.28 -0.15333334 1.3333334
-0.27333334 -0.15333334 1.3333334
-0.26666668 -0.15333334 1.3333334
-0.25999999 -0.15333334 1.3333334
-0.25333333 -0.15333334 1.3333334
-0.24666667 -0.15333334 1.3333334
-0.23736264 -0.15164836 1.3186814
-0.23076923 -0.15164836 1.3186814
-0.22417583 -0.15164836 1.3186814
-0.2152174 -0.15000001 1.3043479
-0.20869565 -0.15000001 1.3043479
-0.20217392 -0.15000001 1.3043479
-0.1978022 -0.15164836 1.3186814
-0.19120879 -0.15164836 1.3186814
-0.18260869 -0.15000001 1.3043479
-0.17608696 -0.15000001 1.3043479
-0.16956522 -0.15000001 1.3043479
-0.16304348 -0.15000001 1.3043479
-0.15652174 -0.15000001 1.3043479
-0.15000001 -0.15000001 1.3043479
-0.14347826 -0.15000001 1.3043479
-0.13695653 -0.15000001 1.3043479
-0.13043478 -0.15000001 1.3043479
-0.12258065 -0.14838709 1.2903225
-0.11612903 -0.14838709 1.2903225
-0.11086956 -0.15000001 1.3043479
-0.1032258 -0.14838709 1.2903225
-0.096774191 -0.14838709 1.2903225
-0.091304347 -0.15000001 1.3043479
-0.084782608 -0.15000001 1.3043479
-0.079120882 -0.15164836 1.3186814
-0.072527476 -0.15164836 1.3186814
-0.065934069 -0.15164836 1.3186814
-0.05934066 -0.15164836 1.3186814
-0.052747253 -0.15164836 1.3186814
-0.046153847 -0.15164836 1.3186814
-0.031578947 -0.12105263 1.0526316
-0.026086956 -0.12 1.0434783
-0.020869566 -0.12 1.0434783
-0.015652174 -0.12 1.0434783
-0.010434783 -0.12 1.0434783
-0.0052173915 -0.12 1.0434783
0 -0.12 1.0434783
0.0052173915 -0.12 1.0434783
0.010434783 -0.12 1.0434783
0.015652174 -0.12 1.0434783
0.020869566 -0.12 1.0434783
0.026086956 -0.12 1.0434783
0.031304348 -0.12 1.0434783
0.03652174 -0.12 1.0434783
0.041739132 -0.12 1.0434783
0.046956521 -0.12 1.0434783
0.052173913 -0.12 1.0434783
0.057391305 -0.12 1.0434783
0.063157894 -0.12105263 1.0526316
0.068421051 -0.12105263 1.0526316
0.073684208 -0.12105263 1.0526316
0.080357142 -0.12321428 1.0714285
0.085714288 -0.12321428 1.0714285
0.091071427 -0.12321428 1.0714285
0.096428573 -0.12321428 1.0714285
0.10754717 -0.13018867 1.1320754
0.11320755 -0.13018867 1.1320754
0.11886793 -0.13018867 1.1320754
0.12336449 -0.12897196 1.1214954
0.12897196 -0.12897196 1.1214954
0.13457943 -0.12897196 1.1214954
0.14018692 -0.12897196 1.1214954
0.14579439 -0.12897196 1.1214954
0.15140186 -0.12897196 1.1214954
0.15700935 -0.12897196 1.1214954
0.16261682 -0.12897196 1.1214954
0.1682243 -0.12897196 1.1214954
0.17383178 -0.12897196 1.1214954
0.17943925 -0.12897196 1.1214954
0.18504673 -0.12897196 1.1214954
0.1906542 -0.12897196 1.1214954
0.19626169 -0.12897196 1.1214954
0.20186916 -0.12897196 1.1214954
0.20747663 -0.12897196 1.1214954
0.21308412 -0.12897196 1.1214954
0.21869159 -0.12897196 1.1214954
0.22429906 -0.12897196 1.1214954
0.23207547 -0.13018867 1.1320754
0.23773585 -0.13018867 1.1320754
0.24571429 -0.13142857 1.1428572
0.25142857 -0.13142857 1.1428572
0.25961539 -0.13269231 1.1538461
0.26796117 -0.13398059 1.1650486
0.2737864 -0.13398059 1.1650486
0.27961165 -0.13398059 1.1650486
0.2854369 -0.13398059 1.1650486
0.29126215 -0.13398059 1.1650486
0.29708737 -0.13398059 1.1650486
0.30291262 -0.13398059 1.1650486
0.31485149 -0.13663366 1.1881188
0.32079208 -0.13663366 1.1881188
0.3548387 -0.14838709 1.2903225
0.36129034 -0.14838709 1.2903225
0.36774194 -0.14838709 1.2903225
0.37419355 -0.14838709 1.2903225
0.38064516 -0.14838709 1.2903225
-0.3923077 -0.16923077 1.5384616
-0.38461539 -0.16923077 1.5384616
-0.37692308 -0.16923077 1.5384616
-0.36923078 -0.16923077 1.5384616
-0.32045454 -0.15000001 1.3636364
-0.31363636 -0.15000001 1.3636364
-0.30681819 -0.15000001 1.3636364
-0.29662922 -0.14831461 1.3483146
-0.28988764 -0.14831461 1.3483146
-0.28 -0.14666666 1.3333334
-0.27333334 -0.14666666 1.3333334
-0.26666668 -0.14666666 1.3333334
-0.25999999 -0.14666666 1.3333334
-0.24782608 -0.14347826 1.3043479
-0.24130435 -0.14347826 1.3043479
-0.23478261 -0.14347826 1.3043479
-0.22826087 -0.14347826 1.3043479
-0.22173913 -0.14347826 1.3043479
-0.2152174 -0.14347826 1.3043479
-0.20869565 -0.14347826 1.3043479
-0.20217392 -0.14347826 1.3043479
-0.19354838 -0.14193548 1.2903225
-0.18709677 -0.14193548 1.2903225
-0.18260869 -0.14347826 1.3043479
-0.17608696 -0.14347826 1.3043479
-0.16956522 -0.14347826 1.3043479
-0.16129032 -0.14193548 1.2903225
-0.15483871 -0.14193548 1.2903225
-0.15000001 -0.14347826 1.3043479
-0.14193548 -0.14193548 1.2903225
-0.13548388 -0.14193548 1.2903225
-0.12903225 -0.14193548 1.2903225
-0.12258065 -0.14193548 1.2903225
-0.11612903 -0.14193548 1.2903225
-0.10851064 -0.14042553 1.2765957
-0.1032258 -0.14193548 1.2903225
-0.096774191 -0.14193548 1.2903225
-0.089361705 -0.14042553 1.2765957
-0.082978725 -0.14042553 1.2765957
-0.076595746 -0.14042553 1.2765957
-0.072527476 -0.14505495 1.3186814
-0.065934069 -0.14505495 1.3186814
-0.05934066 -0.14505495 1.3186814
-0.052747253 -0.14505495 1.3186814
-0.036842104 -0.11578947 1.0526316
-0.031578947 -0.11578947 1.0526316
-0.026086956 -0.11478261 1.0434783
-0.020869566 -0.11478261 1.0434783
-0.015652174 -0.11478261 1.0434783
-0.010434783 -0.11478261 1.0434783
-0.0052173915 -0.11478261 1.0434783
0 -0.11478261 1.0434783
0.0052173915 -0.11478261 1.0434783
0.010434783 -0.11478261 1.0434783
0.015652174 -0.11478261 1.0434783
0.020869566 -0.11478261 1.0434783
0.026086956 -0.11478261 1.0434783
0.031304348 -0.11478261 1.0434783
0.03652174 -0.11478261 1.0434783
0.041739132 -0.11478261 1.0434783
0.046956521 -0.11478261 1.0434783
0.052173913 -0.11478261 1.0434783
0.057391305 -0.11478261 1.0434783
0.062608697 -0.11478261 1.0434783
0.067826085 -0.11478261 1.0434783
0.073043481 -0.11478261 1.0434783
0.080357142 -0.11785714 1.0714285
0.085714288 -0.11785714 1.0714285
0.091071427 -0.11785714 1.0714285
0.097297296 -0.11891892 1.081081
0.1027027 -0.11891892 1.081081
0.10810811 -0.11891892 1.081081
0.11351351 -0.11891892 1.081081
0.12336449 -0.12336449 1.1214954
0.12432432 -0.11891892 1.081081
0.12972973 -0.11891892 1.081081
0.14018692 -0.12336449 1.1214954
0.14579439 -0.12336449 1.1214954
0.15140186 -0.12336449 1.1214954
0.15700935 -0.12336449 1.1214954
0.16261682 -0.12336449 1.1214954
0.1682243 -0.12336449 1.1214954
0.17383178 -0.12336449 1.1214954
0.17943925 -0.12336449 1.1214954
0.18504673 -0.12336449 1.1214954
0.1906542 -0.12336449 1.1214954
0.19626169 -0.12336449 1.1214954
0.20186916 -0.12336449 1.1214954
0.20747663 -0.12336449 1.1214954
0.21308412 -0.12336449 1.1214954
0.21869159 -0.12336449 1.1214954
0.22429906 -0.12336449 1.1214954
0.23207547 -0.1245283 1.1320754
0.23773585 -0.1245283 1.1320754
0.24339622 -0.1245283 1.1320754
0.24905661 -0.1245283 1.1320754
0.25714287 -0.12571429 1.1428572
0.26285714 -0.12571429 1.1428572
0.26857144 -0.12571429 1.1428572
0.27961165 -0.12815534 1.1650486
0.28269231 -0.12692308 1.1538461
0.29126215 -0.12815534 1.1650486
0.29708737 -0.12815534 1.1650486
0.30000001 -0.12692308 1.1538461
0.31485149 -0.13069306 1.1881188
0.32079208 -0.13069306 1.1881188
0.32673267 -0.13069306 1.1881188
0.36129034 -0.14193548 1.2903225
0.36774194 -0.14193548 1.2903225
0.37419355 -0.14193548 1.2903225
-0.37692308 -0.16153847 1.5384616
-0.32727271 -0.14318182 1.3636364
-0.32045454 -0.14318182 1.3636364
-0.31363636 -0.14318182 1.3636364
-0.30681819 -0.14318182 1.3636364
-0.29662922 -0.14157303 1.3483146
-0.2835165 -0.13846155 1.3186814
-0.28 -0.14 1.3333334
-0.27333334 -0.14 1.3333334
-0.26666668 -0.14 1.3333334
-0.25434783 -0.13695653 1.3043479
-0.24782608 -0.13695653 1.3043479
-0.24130435 -0.13695653 1.3043479
-0.23478261 -0.13695653 1.3043479
-0.22826087 -0.13695653 1.3043479
-0.22173913 -0.13695653 1.3043479
-0.2152174 -0.13695653 1.3043479
-0.20869565 -0.13695653 1.3043479
-0.2 -0.13548388 1.2903225
-0.19354838 -0.13548388 1.2903225
-0.18709677 -0.13548388 1.2903225
-0.18064517 -0.13548388 1.2903225
-0.17419355 -0.13548388 1.2903225
-0.16774194 -0.13548388 1.2903225
-0.16129032 -0.13548388 1.2903225
-0.15483871 -0.13548388 1.2903225
-0.14838709 -0.13548388 1.2903225
-0.14193548 -0.13548388 1.2903225
-0.13548388 -0.13548388 1.2903225
-0.12903225 -0.13548388 1.2903225
-0.12127659 -0.13404255 1.2765957
-0.11489362 -0.13404255 1.2765957
-0.10851064 -0.13404255 1.2765957
-0.10105263 -0.13263159 1.2631578
-0.094736844 -0.13263159 1.2631578
-0.089361705 -0.13404255 1.2765957
-0.080412373 -0.12989691 1.2371134
-0.074226804 -0.12989691 1.2371134
-0.068041235 -0.12989691 1.2371134
-0.052631579 -0.11052632 1.0526316
-0.047368422 -0.11052632 1.0526316
-0.042105265 -0.11052632 1.0526316
-0.036842104 -0.11052632 1.0526316
-0.031578947 -0.11052632 1.0526316
-0.02631579 -0.11052632 1.0526316
-0.020869566 -0.10956522 1.0434783
-0.015652174 -0.10956522 1.0434783
-0.010434783 -0.10956522 1.0434783
-0.0052173915 -0.10956522 1.0434783
0 -0.10956522 1.0434783
0.0052173915 -0.10956522 1.0434783
0.010434783 -0.10956522 1.0434783
0.015652174 -0.10956522 1.0434783
0.020869566 -0.10956522 1.0434783
0.026086956 -0.10956522 1.0434783
0.031304348 -0.10956522 1.0434783
0.03652174 -0.10956522 1.0434783
0.041739132 -0.10956522 1.0434783
0.046956521 -0.10956522 1.0434783
0.052173913 -0.10956522 1.0434783
0.057391305 -0.10956522 1.0434783
0.062608697 -0.10956522 1.0434783
0.067826085 -0.10956522 1.0434783
0.073684208 -0.11052632 1.0526316
0.078947365 -0.11052632 1.0526316
0.08421053 -0.11052632 1.0526316
0.089473687 -0.11052632 1.0526316
0.094736844 -0.11052632 1.0526316
0.1027027 -0.11351351 1.081081
0.10810811 -0.11351351 1.081081
0.11351351 -0.11351351 1.081081
0.11891892 -0.11351351 1.081081
0.12432432 -0.11351351 1.081081
0.12972973 -0.11351351 1.081081
0.14018692 -0.11775701 1.1214954
0.14579439 -0.11775701 1.1214954
0.15140186 -0.11775701 1.1214954
0.15700935 -0.11775701 1.1214954
0.16261682 -0.11775701 1.1214954
0.1682243 -0.11775701 1.1214954
0.17383178 -0.11775701 1.1214954
0.17943925 -0.11775701 1.1214954
0.18504673 -0.11775701 1.1214954
0.1906542 -0.11775701 1.1214954
0.19626169 -0.11775701 1.1214954
0.2 -0.11666667 1.1111112
0.20555556 -0.11666667 1.1111112
0.21308412 -0.11775701 1.1214954
0.21869159 -0.11775701 1.1214954
0.22429906 -0.11775701 1.1214954
0.22990654 -0.11775701 1.1214954
0.23773585 -0.11886793 1.1320754
0.24339622 -0.11886793 1.1320754
0.24905661 -0.11886793 1.1320754
0.25471699 -0.11886793 1.1320754
0.26285714 -0.12 1.1428572
0.26857144 -0.12 1.1428572
0.27692309 -0.12115385 1.1538461
0.28269231 -0.12115385 1.1538461
0.29126215 -0.1223301 1.1650486
0.29423076 -0.12115385 1.1538461
0.30000001 -0.12115385 1.1538461
0.30873787 -0.1223301 1.1650486
0.31764707 -0.12352941 1.1764706
0.32352942 -0.12352941 1.1764706
0.36129034 -0.13548388 1.2903225
0.36774194 -0.13548388 1.2903225
0.37419355 -0.13548388 1.2903225
-0.33033708 -0.13483146 1.3483146
-0.32359549 -0.13483146 1.3483146
-0.31685394 -0.13483146 1.3483146
-0.31011236 -0.13483146 1.3483146
-0.30337077 -0.13483146 1.3483146
-0.2901099 -0.13186814 1.3186814
-0.2835165 -0.13186814 1.3186814
-0.27692309 -0.13186814 1.3186814
-0.27032968 -0.13186814 1.3186814
-0.26086956 -0.13043478 1.3043479
-0.25434783 -0.13043478 1.3043479
-0.24782608 -0.13043478 1.3043479
-0.24130435 -0.13043478 1.3043479
-0.23478261 -0.13043478 1.3043479
-0.22826087 -0.13043478 1.3043479
-0.22173913 -0.13043478 1.3043479
-0.2152174 -0.13043478 1.3043479
-0.20869565 -0.13043478 1.3043479
-0.2 -0.12903225 1.2903225
-0.19354838 -0.12903225 1.2903225
-0.18709677 -0.12903225 1.2903225
-0.18064517 -0.12903225 1.2903225
-0.17419355 -0.12903225 1.2903225
-0.16774194 -0.12903225 1.2903225
-0.16129032 -0.12903225 1.2903225
-0.15483871 -0.12903225 1.2903225
-0.14838709 -0.12903225 1.2903225
-0.14193548 -0.12903225 1.2903225
-0.13548388 -0.12903225 1.2903225
-0.12765957 -0.12765957 1.2765957
-0.12127659 -0.12765957 1.2765957
-0.11489362 -0.12765957 1.2765957
-0.10851064 -0.12765957 1.2765957
-0.10105263 -0.12631579 1.2631578
-0.094736844 -0.12631579 1.2631578
-0.086597942 -0.12371134 1.2371134
-0.080412373 -0.12371134 1.2371134
-0.074226804 -0.12371134 1.2371134
-0.068041235 -0.12371134 1.2371134
-0.052631579 -0.10526316 1.0526316
-0.047368422 -0.10526316 1.0526316
-0.042105265 -0.10526316 1.0526316
-0.036842104 -0.10526316 1.0526316
-0.031578947 -0.10526316 1.0526316
-0.02631579 -0.10526316 1.0526316
-0.020869566 -0.10434783 1.0434783
-0.015652174 -0.10434783 1.0434783
-0.010434783 -0.10434783 1.0434783
-0.0052631581 -0.10526316 1.0526316
0 -0.10434783 1.0434783
0.0052631581 -0.10526316 1.0526316
0.010526316 -0.10526316 1.0526316
0.015652174 -0.10434783 1.0434783
0.020869566 -0.10434783 1.0434783
0.026086956 -0.10434783 1.0434783
0.031578947 -0.10526316 1.0526316
0.03652174 -0.10434783 1.0434783
0.041739132 -0.10434783 1.0434783
0.046956521 -0.10434783 1.0434783
0.052173913 -0.10434783 1.0434783
0.057391305 -0.10434783 1.0434783
0.063157894 -0.10526316 1.0526316
0.068421051 -0.10526316 1.0526316
0.073684208 -0.10526316 1.0526316
0.078947365 -0.10526316 1.0526316
0.08421053 -0.10526316 1.0526316
0.089473687 -0.10526316 1.0526316
0.094736844 -0.10526316 1.0526316
0.1 -0.10526316 1.0526316
0.10526316 -0.10526316 1.0526316
0.11052632 -0.10526316 1.0526316
0.11578947 -0.10526316 1.0526316
0.12432432 -0.10810811 1.081081
0.12972973 -0.10810811 1.081081
0.14018692 -0.11214953 1.1214954
0.14579439 -0.11214953 1.1214954
0.15140186 -0.11214953 1.1214954
0.15700935 -0.11214953 1.1214954
0.16261682 -0.11214953 1.1214954
0.1682243 -0.11214953 1.1214954
0.17222223 -0.11111111 1.1111112
0.17777778 -0.11111111 1.1111112
0.18333334 -0.11111111 1.1111112
0.18888889 -0.11111111 1.1111112
0.19444445 -0.11111111 1.1111112
0.2 -0.11111111 1.1111112
0.20555556 -0.11111111 1.1111112
0.21111111 -0.11111111 1.1111112
0.21666667 -0.11111111 1.1111112
0.22429906 -0.11214953 1.1214954
0.22990654 -0.11214953 1.1214954
0.23551401 -0.11214953 1.1214954
0.24339622 -0.11320755 1.1320754
0.24905661 -0.11320755 1.1320754
0.25471699 -0.11320755 1.1320754
0.26037735 -0.11320755 1.1320754
0.26857144 -0.11428571 1.1428572
0.27692309 -0.11538462 1.1538461
0.28269231 -0.11538462 1.1538461
0.28846154 -0.11538462 1.1538461
0.29423076 -0.11538462 1.1538461
0.30000001 -0.11538462 1.1538461
0.30873787 -0.11650486 1.1650486
0.31764707 -0.11764706 1.1764706
0.32352942 -0.11764706 1.1764706
0.32941177 -0.11764706 1.1764706
0.33529413 -0.11764706 1.1764706
0.34117648 -0.11764706 1.1764706
0.35049504 -0.11881188 1.1881188
-0.32359549 -0.12808989 1.3483146
-0.31685394 -0.12808989 1.3483146
-0.31011236 -0.12808989 1.3483146
-0.30337077 -0.12808989 1.3483146
-0.2901099 -0.12527473 1.3186814
-0.2835165 -0.12527473 1.3186814
-0.27692309 -0.12527473 1.3186814
-0.27032968 -0.12527473 1.3186814
-0.26086956 -0.12391304 1.3043479
-0.25434783 -0.12391304 1.3043479
-0.24782608 -0.12391304 1.3043479
-0.24130435 -0.12391304 1.3043479
-0.23478261 -0.12391304 1.3043479
-0.22826087 -0.12391304 1.3043479
-0.22173913 -0.12391304 1.3043479
-0.2152174 -0.12391304 1.3043479
-0.1699115 -0.10088496 1.0619469
-0.2 -0.12258065 1.2903225
-0.19354838 -0.12258065 1.2903225
-0.18709677 -0.12258065 1.2903225
-0.18064517 -0.12258065 1.2903225
-0.17419355 -0.12258065 1.2903225
-0.16774194 -0.12258065 1.2903225
-0.15957446 -0.12127659 1.2765957
-0.15319149 -0.12127659 1.2765957
-0.14680851 -0.12127659 1.2765957
-0.14042553 -0.12127659 1.2765957
-0.13263159 -0.12 1.2631578
-0.12765957 -0.12127659 1.2765957
-0.12127659 -0.12127659 1.2765957
-0.11020408 -0.11632653 1.2244898
-0.10408163 -0.11632653 1.2244898
-0.097959183 -0.11632653 1.2244898
-0.091836736 -0.11632653 1.2244898
-0.086597942 -0.11752577 1.2371134
-0.080412373 -0.11752577 1.2371134
-0.074226804 -0.11752577 1.2371134
-0.068041235 -0.11752577 1.2371134
-0.052631579 -0.1 1.0526316
-0.047368422 -0.1 1.0526316
-0.042105265 -0.1 1.0526316
-0.036842104 -0.1 1.0526316
-0.031578947 -0.1 1.0526316
-0.02631579 -0.1 1.0526316
-0.020869566 -0.099130437 1.0434783
-0.015652174 -0.099130437 1.0434783
-0.010526316 -0.1 1.0526316
-0.0052631581 -0.1 1.0526316
0 -0.1 1.0526316
0.0052631581 -0.1 1.0526316
0.010526316 -0.1 1.0526316
0.015789473 -0.1 1.0526316
0.020869566 -0.099130437 1.0434783
0.02631579 -0.1 1.0526316
0.031578947 -0.1 1.0526316
0.036842104 -0.1 1.0526316
0.042105265 -0.1 1.0526316
0.046956521 -0.099130437 1.0434783
0.052173913 -0.099130437 1.0434783
0.057391305 -0.099130437 1.0434783
0.063157894 -0.1 1.0526316
0.068421051 -0.1 1.0526316
0.073684208 -0.1 1.0526316
0.078947365 -0.1 1.0526316
0.08421053 -0.1 1.0526316
0.089473687 -0.1 1.0526316
0.094736844 -0.1 1.0526316
0.1 -0.1 1.0526316
0.10526316 -0.1 1.0526316
0.11052632 -0.1 1.0526316
0.11578947 -0.1 1.0526316
0.12105263 -0.1 1.0526316
0.12972973 -0.1027027 1.081081
0.13513513 -0.1027027 1.081081
0.1368421 -0.1 1.0526316
0.14210527 -0.1 1.0526316
0.14736842 -0.1 1.0526316
0.15263158 -0.1 1.0526316
0.15929204 -0.10088496 1.0619469
0.16460177 -0.10088496 1.0619469
0.17777778 -0.10555556 1.1111112
0.18333334 -0.10555556 1.1111112
0.18378378 -0.1027027 1.081081
0.19090909 -0.10363636 1.0909091
0.19636364 -0.10363636 1.0909091
0.20366973 -0.10458715 1.1009175
0.21111111 -0.10555556 1.1111112
0.21666667 -0.10555556 1.1111112
0.22222222 -0.10555556 1.1111112
0.22777778 -0.10555556 1.1111112
0.23551401 -0.10654206 1.1214954
0.2411215 -0.10654206 1.1214954
0.24672897 -0.10654206 1.1214954
0.25471699 -0.10754717 1.1320754
0.26037735 -0.10754717 1.1320754
0.26857144 -0.10857143 1.1428572
0.2742857 -0.10857143 1.1428572
0.28 -0.10857143 1.1428572
0.28846154 -0.10961539 1.1538461
0.29423076 -0.10961539 1.1538461
0.30000001 -0.10961539 1.1538461
0.30576923 -0.10961539 1.1538461
0.31764707 -0.11176471 1.1764706
0.32352942 -0.11176471 1.1764706
0.32941177 -0.11176471 1.1764706
0.33529413 -0.11176471 1.1764706
0.34455445 -0.11287129 1.1881188
0.35049504 -0.11287129 1.1881188
0.35643566 -0.11287129 1.1881188
0.36237624 -0.11287129 1.1881188
-0.32359549 -0.12134831 1.3483146
-0.31685394 -0.12134831 1.3483146
-0.31011236 -0.12134831 1.3483146
-0.30337077 -0.12134831 1.3483146
-0.2901099 -0.11868132 1.3186814
-0.2835165 -0.11868132 1.3186814
-0.27692309 -0.11868132 1.3186814
-0.27032968 -0.11868132 1.3186814
-0.26086956 -0.1173913 1.3043479
-0.25434783 -0.1173913 1.3043479
-0.24782608 -0.1173913 1.3043479
-0.24130435 -0.1173913 1.3043479
-0.23478261 -0.1173913 1.3043479
-0.18584071 -0.095575221 1.0619469
-0.18053098 -0.095575221 1.0619469
-0.17522123 -0.095575221 1.0619469
-0.1699115 -0.095575221 1.0619469
-0.16460177 -0.095575221 1.0619469
-0.15929204 -0.095575221 1.0619469
-0.18709677 -0.11612903 1.2903225
-0.18064517 -0.11612903 1.2903225
-0.17419355 -0.11612903 1.2903225
-0.16774194 -0.11612903 1.2903225
-0.15957446 -0.11489362 1.2765957
-0.15319149 -0.11489362 1.2765957
-0.14680851 -0.11489362 1.2765957
-0.14042553 -0.11489362 1.2765957
-0.13263159 -0.11368421 1.2631578
-0.12631579 -0.11368421 1.2631578
-0.11632653 -0.11020408 1.2244898
-0.11020408 -0.11020408 1.2244898
-0.10408163 -0.11020408 1.2244898
-0.097959183 -0.11020408 1.2244898
-0.091836736 -0.11020408 1.2244898
-0.085714288 -0.11020408 1.2244898
-0.080412373 -0.11134021 1.2371134
-0.074226804 -0.11134021 1.2371134
-0.068041235 -0.11134021 1.2371134
-0.052631579 -0.094736844 1.0526316
-0.047368422 -0.094736844 1.0526316
-0.042105265 -0.094736844 1.0526316
-0.036842104 -0.094736844 1.0526316
-0.031578947 -0.094736844 1.0526316
-0.02631579 -0.094736844 1.0526316
-0.021052632 -0.094736844 1.0526316
-0.015789473 -0.094736844 1.0526316
-0.010526316 -0.094736844 1.0526316
-0.0052631581 -0.094736844 1.0526316
0 -0.094736844 1.0526316
0.0052631581 -0.094736844 1.0526316
0.010526316 -0.094736844 1.0526316
0.015789473 -0.094736844 1.0526316
0.021052632 -0.094736844 1.0526316
0.02631579 -0.094736844 1.0526316
0.031578947 -0.094736844 1.0526316
0.036842104 -0.094736844 1.0526316
0.042105265 -0.094736844 1.0526316
0.046956521 -0.093913041 1.0434783
0.052173913 -0.093913041 1.0434783
0.057894737 -0.094736844 1.0526316
0.063157894 -0.094736844 1.0526316
0.068421051 -0.094736844 1.0526316
0.073684208 -0.094736844 1.0526316
0.078947365 -0.094736844 1.0526316
0.08421053 -0.094736844 1.0526316
0.089473687 -0.094736844 1.0526316
0.094736844 -0.094736844 1.0526316
0.1 -0.094736844 1.0526316
0.10526316 -0.094736844 1.0526316
0.11052632 -0.094736844 1.0526316
0.11578947 -0.094736844 1.0526316
0.12105263 -0.094736844 1.0526316
0.12631579 -0.094736844 1.0526316
0.13157895 -0.094736844 1.0526316
0.1368421 -0.094736844 1.0526316
0.14210527 -0.094736844 1.0526316
0.14736842 -0.094736844 1.0526316
0.15263158 -0.094736844 1.0526316
0.15929204 -0.095575221 1.0619469
0.16460177 -0.095575221 1.0619469
0.1699115 -0.095575221 1.0619469
0.17837837 -0.097297296 1.081081
0.18378378 -0.097297296 1.081081
0.19090909 -0.098181821 1.0909091
0.19636364 -0.098181821 1.0909091
0.20366973 -0.099082567 1.1009175
0.20917431 -0.099082567 1.1009175
0.21666667 -0.1 1.1111112
0.22222222 -0.1 1.1111112
0.22777778 -0.1 1.1111112
0.23333333 -0.1 1.1111112
0.23888889 -0.1 1.1111112
0.24672897 -0.10093458 1.1214954
0.25233644 -0.10093458 1.1214954
0.26037735 -0.10188679 1.1320754
0.26603773 -0.10188679 1.1320754
0.2742857 -0.10285714 1.1428572
0.28 -0.10285714 1.1428572
0.2857143 -0.10285714 1.1428572
0.29423076 -0.10384616 1.1538461
0.30000001 -0.10384616 1.1538461
0.30576923 -0.10384616 1.1538461
0.31764707 -0.10588235 1.1764706
0.32352942 -0.10588235 1.1764706
0.32941177 -0.10588235 1.1764706
0.33529413 -0.10588235 1.1764706
0.34455445 -0.1069307 1.1881188
0.35049504 -0.1069307 1.1881188
0.35643566 -0.1069307 1.1881188
0.366 -0.108 1.2
0.37200001 -0.108 1.2
0.37799999 -0.108 1.2
-0.35454544 -0.11590909 1.3636364
-0.34772727 -0.11590909 1.3636364
-0.31011236 -0.11460674 1.3483146
-0.2835165 -0.11208791 1.3186814
-0.24782608 -0.11086956 1.3043479
-0.19646017 -0.09026549 1.0619469
-0.19115044 -0.09026549 1.0619469
-0.18584071 -0.09026549 1.0619469
-0.18053098 -0.09026549 1.0619469
-0.17522123 -0.09026549 1.0619469
-0.1699115 -0.09026549 1.0619469
-0.16460177 -0.09026549 1.0619469
-0.15929204 -0.09026549 1.0619469
-0.1539823 -0.09026549 1.0619469
-0.14867257 -0.09026549 1.0619469
-0.14336284 -0.09026549 1.0619469
-0.1380531 -0.09026549 1.0619469
-0.13274336 -0.09026549 1.0619469
-0.15319149 -0.10851064 1.2765957
-0.14680851 -0.10851064 1.2765957
-0.14042553 -0.10851064 1.2765957
-0.13263159 -0.10736842 1.2631578
-0.12244898 -0.10408163 1.2244898
-0.11632653 -0.10408163 1.2244898
-0.11020408 -0.10408163 1.2244898
-0.10408163 -0.10408163 1.2244898
-0.096969694 -0.1030303 1.2121212
-0.090909094 -0.1030303 1.2121212
-0.084848486 -0.1030303 1.2121212
-0.069026552 -0.09026549 1.0619469
-0.063716814 -0.09026549 1.0619469
-0.058407079 -0.09026549 1.0619469
-0.052631579 -0.089473687 1.0526316
-0.047368422 -0.089473687 1.0526316
-0.042105265 -0.089473687 1.0526316
-0.036842104 -0.089473687 1.0526316
-0.031578947 -0.089473687 1.0526316
-0.02631579 -0.089473687 1.0526316
-0.021052632 -0.089473687 1.0526316
-0.015789473 -0.089473687 1.0526316
-0.010526316 -0.089473687 1.0526316
-0.0052631581 -0.089473687 1.0526316
0 -0.089473687 1.0526316
0.0052631581 -0.089473687 1.0526316
0.010526316 -0.089473687 1.0526316
0.015789473 -0.089473687 1.0526316
0.021052632 -0.089473687 1.0526316
0.02631579 -0.089473687 1.0526316
0.031578947 -0.089473687 1.0526316
0.036842104 -0.089473687 1.0526316
0.042105265 -0.089473687 1.0526316
0.047368422 -0.089473687 1.0526316
0.052631579 -0.089473687 1.0526316
0.057894737 -0.089473687 1.0526316
0.063157894 -0.089473687 1.0526316
0.068421051 -0.089473687 1.0526316
0.073684208 -0.089473687 1.0526316
0.078947365 -0.089473687 1.0526316
0.08421053 -0.089473687 1.0526316
0.089473687 -0.089473687 1.0526316
0.094736844 -0.089473687 1.0526316
0.1 -0.089473687 1.0526316
0.10526316 -0.089473687 1.0526316
0.11052632 -0.089473687 1.0526316
0.11578947 -0.089473687 1.0526316
0.12105263 -0.089473687 1.0526316
0.12631579 -0.089473687 1.0526316
0.13157895 -0.089473687 1.0526316
0.1368421 -0.089473687 1.0526316
0.14210527 -0.089473687 1.0526316
0.14736842 -0.089473687 1.0526316
0.15263158 -0.089473687 1.0526316
0.15929204 -0.09026549 1.0619469
0.16460177 -0.09026549 1.0619469
0.1699115 -0.09026549 1.0619469
0.17522123 -0.09026549 1.0619469
0.18378378 -0.091891892 1.081081
0.18584071 -0.09026549 1.0619469
0.19285715 -0.091071427 1.0714285
0.20366973 -0.093577981 1.1009175
0.2054054 -0.091891892 1.081081
0.21081081 -0.091891892 1.081081
0.21238938 -0.09026549 1.0619469
0.21964286 -0.091071427 1.0714285
0.23333333 -0.094444446 1.1111112
0.23888889 -0.094444446 1.1111112
0.24672897 -0.095327102 1.1214954
0.25233644 -0.095327102 1.1214954
0.26037735 -0.096226417 1.1320754
0.26603773 -0.096226417 1.1320754
0.26181817 -0.092727274 1.0909091
0.28 -0.09714286 1.1428572
0.2857143 -0.09714286 1.1428572
0.29423076 -0.098076925 1.1538461
0.30000001 -0.098076925 1.1538461
0.30576923 -0.098076925 1.1538461
0.31153846 -0.098076925 1.1538461
0.32038835 -0.099029124 1.1650486
0.32941177 -0.1 1.1764706
0.33861387 -0.1009901 1.1881188
0.34455445 -0.1009901 1.1881188
0.35049504 -0.1009901 1.1881188
0.35643566 -0.1009901 1.1881188
0.366 -0.102 1.2
0.37200001 -0.102 1.2
0.37799999 -0.102 1.2
-0.36818182 -0.10909091 1.3636364
-0.36136365 -0.10909091 1.3636364
-0.35454544 -0.10909091 1.3636364
-0.34772727 -0.10909091 1.3636364
-0.34090909 -0.10909091 1.3636364
-0.33409092 -0.10909091 1.3636364
-0.19646017 -0.084955752 1.0619469
-0.19115044 -0.084955752 1.0619469
-0.18584071 -0.084955752 1.0619469
-0.18053098 -0.084955752 1.0619469
-0.17522123 -0.084955752 1.0619469
-0.1699115 -0.084955752 1.0619469
-0.16460177 -0.084955752 1.0619469
-0.15929204 -0.084955752 1.0619469
-0.1539823 -0.084955752 1.0619469
-0.14867257 -0.084955752 1.0619469
-0.14336284 -0.084955752 1.0619469
-0.1380531 -0.084955752 1.0619469
-0.13274336 -0.084955752 1.0619469
-0.12743363 -0.084955752 1.0619469
-0.14680851 -0.10212766 1.2765957
-0.14042553 -0.10212766 1.2765957
-0.12857144 -0.097959183 1.2244898
-0.12244898 -0.097959183 1.2244898
-0.11632653 -0.097959183 1.2244898
-0.108 -0.096000001 1.2
-0.102 -0.096000001 1.2
-0.096969694 -0.096969694 1.2121212
-0.090909094 -0.096969694 1.2121212
-0.084848486 -0.096969694 1.2121212
-0.069026552 -0.084955752 1.0619469
-0.063716814 -0.084955752 1.0619469
-0.058407079 -0.084955752 1.0619469
-0.053097345 -0.084955752 1.0619469
-0.047368422 -0.08421053 1.0526316
-0.042105265 -0.08421053 1.0526316
-0.036842104 -0.08421053 1.0526316
-0.031578947 -0.08421053 1.0526316
-0.02631579 -0.08421053 1.0526316
-0.021052632 -0.08421053 1.0526316
-0.015789473 -0.08421053 1.0526316
-0.010526316 -0.08421053 1.0526316
-0.0052631581 -0.08421053 1.0526316
0 -0.08421053 1.0526316
0.0052631581 -0.08421053 1.0526316
0.010526316 -0.08421053 1.0526316
0.015789473 -0.08421053 1.0526316
0.021052632 -0.08421053 1.0526316
0.02631579 -0.08421053 1.0526316
0.031578947 -0.08421053 1.0526316
0.036842104 -0.08421053 1.0526316
0.042105265 -0.08421053 1.0526316
0.052631579 -0.08421053 1.0526316
0.057894737 -0.08421053 1.0526316
0.063157894 -0.08421053 1.0526316
0.068421051 -0.08421053 1.0526316
0.073684208 -0.08421053 1.0526316
0.078947365 -0.08421053 1.0526316
0.08421053 -0.08421053 1.0526316
0.089473687 -0.08421053 1.0526316
0.094736844 -0.08421053 1.0526316
0.1 -0.08421053 1.0526316
0.10526316 -0.08421053 1.0526316
0.11052632 -0.08421053 1.0526316
0.11578947 -0.08421053 1.0526316
0.12105263 -0.08421053 1.0526316
0.12631579 -0.08421053 1.0526316
0.13157895 -0.08421053 1.0526316
0.1368421 -0.08421053 1.0526316
0.14210527 -0.08421053 1.0526316
0.14736842 -0.08421053 1.0526316
0.15263158 -0.08421053 1.0526316
0.15789473 -0.08421053 1.0526316
0.1631579 -0.08421053 1.0526316
0.1699115 -0.084955752 1.0619469
0.17522123 -0.084955752 1.0619469
0.18053098 -0.084955752 1.0619469
0.18584071 -0.084955752 1.0619469
0.19285715 -0.085714288 1.0714285
0.19821429 -0.085714288 1.0714285
0.2054054 -0.086486489 1.081081
0.20707965 -0.084955752 1.0619469
0.21238938 -0.084955752 1.0619469
0.21964286 -0.085714288 1.0714285
0.22499999 -0.085714288 1.0714285
0.23035714 -0.085714288 1.0714285
0.23571429 -0.085714288 1.0714285
0.23893805 -0.084955752 1.0619469
0.24642856 -0.085714288 1.0714285
0.25636363 -0.087272726 1.0909091
0.26181817 -0.087272726 1.0909091
0.26727274 -0.087272726 1.0909091
0.2857143 -0.09142857 1.1428572
0.29142857 -0.09142857 1.1428572
0.30000001 -0.092307694 1.1538461
0.30576923 -0.092307694 1.1538461
0.31153846 -0.092307694 1.1538461
0.32038835 -0.09320388 1.1650486
0.32941177 -0.094117649 1.1764706
0.33529413 -0.094117649 1.1764706
0.34117648 -0.094117649 1.1764706
0.35049504 -0.095049508 1.1881188
0.36000001 -0.096000001 1.2
0.366 -0.096000001 1.2
0.37200001 -0.096000001 1.2
0.37799999 -0.096000001 1.2
0.384 -0.096000001 1.2
-0.36818182 -0.10227273 1.3636364
-0.36136365 -0.10227273 1.3636364
-0.35454544 -0.10227273 1.3636364
-0.34772727 -0.10227273 1.3636364
-0.34090909 -0.10227273 1.3636364
-0.33409092 -0.10227273 1.3636364
-0.32359549 -0.10112359 1.3483146
-0.22831859 -0.079646021 1.0619469
-0.20707965 -0.079646021 1.0619469
-0.20176992 -0.079646021 1.0619469
-0.19646017 -0.079646021 1.0619469
-0.19115044 -0.079646021 1.0619469
-0.18584071 -0.079646021 1.0619469
-0.18053098 -0.079646021 1.0619469
-0.17522123 -0.079646021 1.0619469
-0.1699115 -0.079646021 1.0619469
-0.16460177 -0.079646021 1.0619469
-0.15929204 -0.079646021 1.0619469
-0.1539823 -0.079646021 1.0619469
-0.14867257 -0.079646021 1.0619469
-0.14336284 -0.079646021 1.0619469
-0.1380531 -0.079646021 1.0619469
-0.13274336 -0.079646021 1.0619469
-0.12743363 -0.079646021 1.0619469
-0.1221239 -0.079646021 1.0619469
-0.11681416 -0.079646021 1.0619469
-0.11150443 -0.079646021 1.0619469
-0.10619469 -0.079646021 1.0619469
-0.11632653 -0.091836736 1.2244898
-0.108 -0.090000004 1.2
-0.102 -0.090000004 1.2
-0.096000001 -0.090000004 1.2
-0.090909094 -0.090909094 1.2121212
-0.074336283 -0.079646021 1.0619469
-0.069026552 -0.079646021 1.0619469
-0.063716814 -0.079646021 1.0619469
-0.058407079 -0.079646021 1.0619469
-0.053097345 -0.079646021 1.0619469
-0.047368422 -0.078947365 1.0526316
-0.042105265 -0.078947365 1.0526316
-0.036842104 -0.078947365 1.0526316
-0.031578947 -0.078947365 1.0526316
-0.02631579 -0.078947365 1.0526316
-0.021052632 -0.078947365 1.0526316
-0.015789473 -0.078947365 1.0526316
-0.010526316 -0.078947365 1.0526316
-0.0052631581 -0.078947365 1.0526316
0 -0.078947365 1.0526316
0.0052631581 -0.078947365 1.0526316
0.010526316 -0.078947365 1.0526316
0.015789473 -0.078947365 1.0526316
0.021052632 -0.078947365 1.0526316
0.02631579 -0.078947365 1.0526316
0.031578947 -0.078947365 1.0526316
0.036842104 -0.078947365 1.0526316
0.042105265 -0.078947365 1.0526316
0.063157894 -0.078947365 1.0526316
0.068421051 -0.078947365 1.0526316
0.073684208 -0.078947365 1.0526316
0.078947365 -0.078947365 1.0526316
0.08421053 -0.078947365 1.0526316
0.089473687 -0.078947365 1.0526316
0.094736844 -0.078947365 1.0526316
0.1 -0.078947365 1.0526316
0.10526316 -0.078947365 1.0526316
0.11052632 -0.078947365 1.0526316
0.11578947 -0.078947365 1.0526316
0.12105263 -0.078947365 1.0526316
0.12631579 -0.078947365 1.0526316
0.13157895 -0.078947365 1.0526316
0.1368421 -0.078947365 1.0526316
0.14210527 -0.078947365 1.0526316
0.14736842 -0.078947365 1.0526316
0.15263158 -0.078947365 1.0526316
0.15789473 -0.078947365 1.0526316
0.1631579 -0.078947365 1.0526316
0.1699115 -0.079646021 1.0619469
0.17522123 -0.079646021 1.0619469
0.18053098 -0.079646021 1.0619469
0.18584071 -0.079646021 1.0619469
0.19115044 -0.079646021 1.0619469
0.19646017 -0.079646021 1.0619469
0.20176992 -0.079646021 1.0619469
0.20707965 -0.079646021 1.0619469
0.21238938 -0.079646021 1.0619469
0.21964286 -0.080357142 1.0714285
0.22300886 -0.079646021 1.0619469
0.22831859 -0.079646021 1.0619469
0.23362832 -0.079646021 1.0619469
0.23893805 -0.079646021 1.0619469
0.24642856 -0.080357142 1.0714285
0.25178573 -0.080357142 1.0714285
0.26181817 -0.081818178 1.0909091
0.26486486 -0.081081077 1.081081
0.27027026 -0.081081077 1.081081
0.27321428 -0.080357142 1.0714285
0.27857143 -0.080357142 1.0714285
0.30576923 -0.086538464 1.1538461
0.31153846 -0.086538464 1.1538461
0.31730768 -0.086538464 1.1538461
0.32941177 -0.088235296 1.1764706
0.33529413 -0.088235296 1.1764706
0.34117648 -0.088235296 1.1764706
0.34705883 -0.088235296 1.1764706
0.36000001 -0.090000004 1.2
0.366 -0.090000004 1.2
0.37200001 -0.090000004 1.2
0.37425742 -0.089108914 1.1881188
0.38019803 -0.089108914 1.1881188
0.38613862 -0.089108914 1.1881188
-0.375 -0.095454544 1.3636364
-0.36818182 -0.095454544 1.3636364
-0.36136365 -0.095454544 1.3636364
-0.35454544 -0.095454544 1.3636364
-0.34772727 -0.095454544 1.3636364
-0.34090909 -0.095454544 1.3636364
-0.33033708 -0.094382025 1.3483146
-0.32359549 -0.094382025 1.3483146
-0.31333333 -0.093333334 1.3333334
-0.23893805 -0.074336283 1.0619469
-0.23362832 -0.074336283 1.0619469
-0.22831859 -0.074336283 1.0619469
-0.22300886 -0.074336283 1.0619469
-0.21769911 -0.074336283 1.0619469
-0.21238938 -0.074336283 1.0619469
-0.20707965 -0.074336283 1.0619469
-0.20176992 -0.074336283 1.0619469
-0.19646017 -0.074336283 1.0619469
-0.19115044 -0.074336283 1.0619469
-0.18584071 -0.074336283 1.0619469
-0.18053098 -0.074336283 1.0619469
-0.17522123 -0.074336283 1.0619469
-0.1699115 -0.074336283 1.0619469
-0.16460177 -0.074336283 1.0619469
-0.15929204 -0.074336283 1.0619469
-0.1539823 -0.074336283 1.0619469
-0.14867257 -0.074336283 1.0619469
-0.14336284 -0.074336283 1.0619469
-0.1380531 -0.074336283 1.0619469
-0.13274336 -0.074336283 1.0619469
-0.12743363 -0.074336283 1.0619469
-0.1221239 -0.074336283 1.0619469
-0.11681416 -0.074336283 1.0619469
-0.11150443 -0.074336283 1.0619469
-0.10619469 -0.074336283 1.0619469
-0.10088496 -0.074336283 1.0619469
-0.108 -0.083999999 1.2
-0.102 -0.083999999 1.2
-0.085714288 -0.075000003 1.0714285
-0.080357142 -0.075000003 1.0714285
-0.074336283 -0.074336283 1.0619469
-0.069026552 -0.074336283 1.0619469
-0.063716814 -0.074336283 1.0619469
-0.058407079 -0.074336283 1.0619469
-0.053097345 -0.074336283 1.0619469
-0.047368422 -0.073684208 1.0526316
-0.042105265 -0.073684208 1.0526316
-0.036842104 -0.073684208 1.0526316
-0.031578947 -0.073684208 1.0526316
-0.02631579 -0.073684208 1.0526316
-0.021052632 -0.073684208 1.0526316
-0.015789473 -0.073684208 1.0526316
-0.010526316 -0.073684208 1.0526316
0 -0.073684208 1.0526316
0.031578947 -0.073684208 1.0526316
0.073684208 -0.073684208 1.0526316
0.08421053 -0.073684208 1.0526316
0.089473687 -0.073684208 1.0526316
0.1 -0.073684208 1.0526316
0.11052632 -0.073684208 1.0526316
0.11578947 -0.073684208 1.0526316
0.12105263 -0.073684208 1.0526316
0.12631579 -0.073684208 1.0526316
0.13157895 -0.073684208 1.0526316
0.1368421 -0.073684208 1.0526316
0.14210527 -0.073684208 1.0526316
0.14736842 -0.073684208 1.0526316
0.15263158 -0.073684208 1.0526316
0.15789473 -0.073684208 1.0526316
0.16460177 -0.074336283 1.0619469
0.1699115 -0.074336283 1.0619469
0.17522123 -0.074336283 1.0619469
0.18053098 -0.074336283 1.0619469
0.18584071 -0.074336283 1.0619469
0.19115044 -0.074336283 1.0619469
0.19646017 -0.074336283 1.0619469
0.20176992 -0.074336283 1.0619469
0.20707965 -0.074336283 1.0619469
0.21238938 -0.074336283 1.0619469
0.21769911 -0.074336283 1.0619469
0.22300886 -0.074336283 1.0619469
0.22831859 -0.074336283 1.0619469
0.23362832 -0.074336283 1.0619469
0.23893805 -0.074336283 1.0619469
0.24424779 -0.074336283 1.0619469
0.25178573 -0.075000003 1.0714285
0.25714287 -0.075000003 1.0714285
0.26486486 -0.075675674 1.081081
0.26785713 -0.075000003 1.0714285
0.27321428 -0.075000003 1.0714285
0.27857143 -0.075000003 1.0714285
0.30576923 -0.080769233 1.1538461
0.31153846 -0.080769233 1.1538461
0.31730768 -0.080769233 1.1538461
0.32307693 -0.080769233 1.1538461
0.32884616 -0.080769233 1.1538461
0.33786407 -0.0815534 1.1650486
0.34368932 -0.0815534 1.1650486
0.35643566 -0.08316832 1.1881188
0.36237624 -0.08316832 1.1881188
0.36831683 -0.08316832 1.1881188
0.37425742 -0.08316832 1.1881188
0.38019803 -0.08316832 1.1881188
0.38613862 -0.08316832 1.1881188
-0.36818182 -0.088636361 1.3636364
-0.36136365 -0.088636361 1.3636364
-0.35454544 -0.088636361 1.3636364
-0.34772727 -0.088636361 1.3636364
-0.33707866 -0.087640449 1.3483146
-0.33033708 -0.087640449 1.3483146
-0.31999999 -0.086666666 1.3333334
-0.31333333 -0.086666666 1.3333334
-0.23893805 -0.069026552 1.0619469
-0.23362832 -0.069026552 1.0619469
-0.22831859 -0.069026552 1.0619469
-0.22300886 -0.069026552 1.0619469
-0.21769911 -0.069026552 1.0619469
-0.21238938 -0.069026552 1.0619469
-0.20707965 -0.069026552 1.0619469
-0.20176992 -0.069026552 1.0619469
-0.19646017 -0.069026552 1.0619469
-0.19115044 -0.069026552 1.0619469
-0.18584071 -0.069026552 1.0619469
-0.18053098 -0.069026552 1.0619469
-0.17522123 -0.069026552 1.0619469
-0.1699115 -0.069026552 1.0619469
-0.16460177 -0.069026552 1.0619469
-0.15929204 -0.069026552 1.0619469
-0.1539823 -0.069026552 1.0619469
-0.14867257 -0.069026552 1.0619469
-0.14336284 -0.069026552 1.0619469
-0.1380531 -0.069026552 1.0619469
-0.13274336 -0.069026552 1.0619469
-0.12743363 -0.069026552 1.0619469
-0.1221239 -0.069026552 1.0619469
-0.11681416 -0.069026552 1.0619469
-0.11150443 -0.069026552 1.0619469
-0.10619469 -0.069026552 1.0619469
-0.10088496 -0.069026552 1.0619469
-0.095575221 -0.069026552 1.0619469
-0.091071427 -0.069642857 1.0714285
-0.085714288 -0.069642857 1.0714285
-0.080357142 -0.069642857 1.0714285
-0.074336283 -0.069026552 1.0619469
-0.069026552 -0.069026552 1.0619469
-0.063716814 -0.069026552 1.0619469
-0.058407079 -0.069026552 1.0619469
-0.053097345 -0.069026552 1.0619469
-0.04778761 -0.069026552 1.0619469
-0.042477876 -0.069026552 1.0619469
-0.037168141 -0.069026552 1.0619469
-0.031858407 -0.069026552 1.0619469
-0.026548672 -0.069026552 1.0619469
-0.021052632 -0.068421051 1.0526316
0.12105263 -0.068421051 1.0526316
0.12631579 -0.068421051 1.0526316
0.13157895 -0.068421051 1.0526316
0.1368421 -0.068421051 1.0526316
0.14336284 -0.069026552 1.0619469
0.14867257 -0.069026552 1.0619469
0.1539823 -0.069026552 1.0619469
0.15929204 -0.069026552 1.0619469
0.16460177 -0.069026552 1.0619469
0.1699115 -0.069026552 1.0619469
0.17522123 -0.069026552 1.0619469
0.18053098 -0.069026552 1.0619469
0.18584071 -0.069026552 1.0619469
0.19115044 -0.069026552 1.0619469
0.19646017 -0.069026552 1.0619469
0.20176992 -0.069026552 1.0619469
0.20707965 -0.069026552 1.0619469
0.21238938 -0.069026552 1.0619469
0.21769911 -0.069026552 1.0619469
0.22300886 -0.069026552 1.0619469
0.22831859 -0.069026552 1.0619469
0.23362832 -0.069026552 1.0619469
0.23893805 -0.069026552 1.0619469
0.24424779 -0.069026552 1.0619469
0.24955752 -0.069026552 1.0619469
0.25714287 -0.069642857 1.0714285
0.26249999 -0.069642857 1.0714285
