# .PCD v0.7 - Point Cloud Data file format
VERSION 0.7
FIELDS x y z
SIZE 4 4 4
TYPE F F F
COUNT 1 1 1
WIDTH 1508
HEIGHT 1
VIEWPOINT 0 0 0 1 0 0 0
POINTS 1508
DATA ascii
0.019565217 0.14347826 1.3043479
0.026086956 0.14347826 1.3043479
0.032608695 0.14347826 1.3043479
0.038709678 0.14193548 1.2903225
0.044680852 0.14042553 1.2765957
0.051063828 0.14042553 1.2765957
0.056842104 0.13894737 1.2631578
0.063157894 0.13894737 1.2631578
0.069473684 0.13894737 1.2631578
0.075000003 0.1375 1.25
0.081249997 0.1375 1.25
0.087499999 0.1375 1.25
0.09375 0.1375 1.25
0.1 0.1375 1.25
0.10515464 0.13608247 1.2371134
0.11134021 0.13608247 1.2371134
0.11752577 0.13608247 1.2371134
0.12371134 0.13608247 1.2371134
0.12989691 0.13608247 1.2371134
0.13608247 0.13608247 1.2371134
0.14226805 0.13608247 1.2371134
0.14845361 0.13608247 1.2371134
0.15306123 0.13469388 1.2244898
0.15918367 0.13469388 1.2244898
0.16530612 0.13469388 1.2244898
0.17142858 0.13469388 1.2244898
0.17755102 0.13469388 1.2244898
0.18556701 0.13608247 1.2371134
0.19175258 0.13608247 1.2371134
0.2 0.1375 1.25
0.20412371 0.13608247 1.2371134
0.21030928 0.13608247 1.2371134
0.21875 0.1375 1.25
0.22499999 0.1375 1.25
0.22886598 0.13608247 1.2371134
0.23505154 0.13608247 1.2371134
0.24123712 0.13608247 1.2371134
0.25 0.1375 1.25
0.25624999 0.1375 1.25
0.26526317 0.13894737 1.2631578
0.27157894 0.13894737 1.2631578
0.27789474 0.13894737 1.2631578
0.28421053 0.13894737 1.2631578
0.29052633 0.13894737 1.2631578
0.2968421 0.13894737 1.2631578
-0.50679612 0.13398059 1.1650486
-0.4848485 0.13939394 1.2121212
-0.35555556 0.17037037 1.4814814
-0.34814814 0.17037037 1.4814814
-0.34074074 0.17037037 1.4814814
-0.33333334 0.17037037 1.4814814
-0.31807229 0.16626506 1.4457831
-0.31084338 0.16626506 1.4457831
-0.30361447 0.16626506 1.4457831
-0.29285714 0.16428572 1.4285715
-0.2857143 0.16428572 1.4285715
-0.27857143 0.16428572 1.4285715
-0.27142859 0.16428572 1.4285715
-0.26428571 0.16428572 1.4285715
-0.25714287 0.16428572 1.4285715
-0.25 0.16428572 1.4285715
-0.23999999 0.16235293 1.4117647
-0.23294118 0.16235293 1.4117647
-0.22588235 0.16235293 1.4117647
-0.21882352 0.16235293 1.4117647
-0.21176471 0.16235293 1.4117647
-0.20470588 0.16235293 1.4117647
-0.19764706 0.16235293 1.4117647
-0.19058824 0.16235293 1.4117647
-0.18352941 0.16235293 1.4117647
-0.17647059 0.16235293 1.4117647
-0.16941176 0.16235293 1.4117647
-0.16235293 0.16235293 1.4117647
-0.15529412 0.16235293 1.4117647
-0.14823529 0.16235293 1.4117647
-0.13953489 0.16046512 1.3953488
-0.13255814 0.16046512 1.3953488
-0.1255814 0.16046512 1.3953488
-0.11860465 0.16046512 1.3953488
-0.11162791 0.16046512 1.3953488
-0.10465116 0.16046512 1.3953488
-0.097674422 0.16046512 1.3953488
-0.090697676 0.16046512 1.3953488
-0.08372093 0.16046512 1.3953488
-0.076744184 0.16046512 1.3953488
-0.070588239 0.16235293 1.4117647
-0.062790699 0.16046512 1.3953488
-0.055813953 0.16046512 1.3953488
-0.048837211 0.16046512 1.3953488
-0.040909089 0.15681818 1.3636364
-0.03409091 0.15681818 1.3636364
-0.027272727 0.15681818 1.3636364
-0.020454545 0.15681818 1.3636364
-0.013636364 0.15681818 1.3636364
-0.0066666668 0.15333334 1.3333334
0 0.15505618 1.3483146
0.0067415731 0.15505618 1.3483146
0.013043478 0.15000001 1.3043479
0.019565217 0.15000001 1.3043479
0.026086956 0.15000001 1.3043479
0.032608695 0.15000001 1.3043479
0.038709678 0.14838709 1.2903225
0.045161292 0.14838709 1.2903225
0.051612902 0.14838709 1.2903225
0.057446808 0.14680851 1.2765957
0.063157894 0.14526317 1.2631578
0.070212767 0.14680851 1.2765957
0.076595746 0.14680851 1.2765957
0.081249997 0.14375 1.25
0.088421054 0.14526317 1.2631578
0.09375 0.14375 1.25
0.1 0.14375 1.25
0.10625 0.14375 1.25
0.1125 0.14375 1.25
0.11752577 0.14226805 1.2371134
0.12371134 0.14226805 1.2371134
0.12989691 0.14226805 1.2371134
0.13608247 0.14226805 1.2371134
0.14375 0.14375 1.25
0.14845361 0.14226805 1.2371134
0.15463917 0.14226805 1.2371134
0.16249999 0.14375 1.25
0.16875 0.14375 1.25
0.175 0.14375 1.25
0.18125001 0.14375 1.25
0.1875 0.14375 1.25
0.19374999 0.14375 1.25
0.2 0.14375 1.25
0.20625 0.14375 1.25
0.21250001 0.14375 1.25
0.21875 0.14375 1.25
0.22499999 0.14375 1.25
0.23125 0.14375 1.25
0.23505154 0.14226805 1.2371134
0.24123712 0.14226805 1.2371134
0.25894737 0.14526317 1.2631578
0.26526317 0.14526317 1.2631578
0.27157894 0.14526317 1.2631578
0.27789474 0.14526317 1.2631578
0.28421053 0.14526317 1.2631578
-0.52149534 0.13457943 1.1214954
-0.51844662 0.13980582 1.1650486
-0.51262134 0.13980582 1.1650486
-0.50679612 0.13980582 1.1650486
-0.5009709 0.13980582 1.1650486
-0.49514562 0.13980582 1.1650486
-0.4969697 0.14545454 1.2121212
-0.4909091 0.14545454 1.2121212
-0.4848485 0.14545454 1.2121212
-0.47878787 0.14545454 1.2121212
-0.47272727 0.14545454 1.2121212
-0.46530613 0.14693877 1.2244898
-0.45625001 0.15000001 1.25
-0.35555556 0.17777778 1.4814814
-0.34814814 0.17777778 1.4814814
-0.33253011 0.17349398 1.4457831
-0.3253012 0.17349398 1.4457831
-0.31807229 0.17349398 1.4457831
-0.31084338 0.17349398 1.4457831
-0.30361447 0.17349398 1.4457831
-0.29285714 0.17142858 1.4285715
-0.2857143 0.17142858 1.4285715
-0.27857143 0.17142858 1.4285715
-0.27142859 0.17142858 1.4285715
-0.26428571 0.17142858 1.4285715
-0.25411764 0.16941176 1.4117647
-0.24705882 0.16941176 1.4117647
-0.23999999 0.16941176 1.4117647
-0.23294118 0.16941176 1.4117647
-0.22588235 0.16941176 1.4117647
-0.21882352 0.16941176 1.4117647
-0.21176471 0.16941176 1.4117647
-0.20470588 0.16941176 1.4117647
-0.19764706 0.16941176 1.4117647
-0.19058824 0.16941176 1.4117647
-0.18352941 0.16941176 1.4117647
-0.17647059 0.16941176 1.4117647
-0.16941176 0.16941176 1.4117647
-0.16235293 0.16941176 1.4117647
-0.15529412 0.16941176 1.4117647
-0.14823529 0.16941176 1.4117647
-0.14117648 0.16941176 1.4117647
-0.13411765 0.16941176 1.4117647
-0.12705882 0.16941176 1.4117647
-0.11860465 0.16744186 1.3953488
-0.11294118 0.16941176 1.4117647
-0.10465116 0.16744186 1.3953488
-0.097674422 0.16744186 1.3953488
-0.091764703 0.16941176 1.4117647
-0.084705882 0.16941176 1.4117647
-0.07764706 0.16941176 1.4117647
-0.070588239 0.16941176 1.4117647
-0.063529409 0.16941176 1.4117647
-0.055813953 0.16744186 1.3953488
-0.048837211 0.16744186 1.3953488
-0.041860465 0.16744186 1.3953488
-0.034883723 0.16744186 1.3953488
-0.027906977 0.16744186 1.3953488
-0.020930232 0.16744186 1.3953488
-0.013636364 0.16363636 1.3636364
-0.0068181818 0.16363636 1.3636364
0 0.16179775 1.3483146
0.0067415731 0.16179775 1.3483146
0.013483146 0.16179775 1.3483146
0.020224718 0.16179775 1.3483146
0.026373627 0.15824176 1.3186814
0.032967035 0.15824176 1.3186814
0.039560441 0.15824176 1.3186814
0.045161292 0.15483871 1.2903225
0.052173913 0.15652174 1.3043479
0.057446808 0.15319149 1.2765957
0.063829787 0.15319149 1.2765957
0.070212767 0.15319149 1.2765957
0.076595746 0.15319149 1.2765957
0.082978725 0.15319149 1.2765957
0.088421054 0.15157895 1.2631578
0.095744684 0.15319149 1.2765957
0.1 0.15000001 1.25
0.10736842 0.15157895 1.2631578
0.1125 0.15000001 1.25
0.12 0.15157895 1.2631578
0.12631579 0.15157895 1.2631578
0.12989691 0.14845361 1.2371134
0.1375 0.15000001 1.25
0.14375 0.15000001 1.25
0.15000001 0.15000001 1.25
0.15625 0.15000001 1.25
0.16249999 0.15000001 1.25
0.16875 0.15000001 1.25
0.175 0.15000001 1.25
0.18125001 0.15000001 1.25
0.1875 0.15000001 1.25
0.19374999 0.15000001 1.25
0.2 0.15000001 1.25
0.20625 0.15000001 1.25
0.21473685 0.15157895 1.2631578
0.21875 0.15000001 1.25
0.22499999 0.15000001 1.25
0.23125 0.15000001 1.25
0.2375 0.15000001 1.25
0.27157894 0.15157895 1.2631578
-0.53271025 0.14018692 1.1214954
-0.52710283 0.14018692 1.1214954
-0.52149534 0.14018692 1.1214954
-0.51588786 0.14018692 1.1214954
-0.51028037 0.14018692 1.1214954
-0.51844662 0.14563107 1.1650486
-0.51262134 0.14563107 1.1650486
-0.50679612 0.14563107 1.1650486
-0.5009709 0.14563107 1.1650486
-0.49514562 0.14563107 1.1650486
-0.4893204 0.14563107 1.1650486
-0.4969697 0.15151516 1.2121212
-0.4909091 0.15151516 1.2121212
-0.4848485 0.15151516 1.2121212
-0.47878787 0.15151516 1.2121212
-0.47272727 0.15151516 1.2121212
-0.46666667 0.15151516 1.2121212
-0.46530613 0.15306123 1.2244898
-0.45918366 0.15306123 1.2244898
-0.46250001 0.15625 1.25
-0.45625001 0.15625 1.25
-0.44999999 0.15625 1.25
-0.44374999 0.15625 1.25
-0.34698796 0.18072289 1.4457831
-0.33975902 0.18072289 1.4457831
-0.33253011 0.18072289 1.4457831
-0.3253012 0.18072289 1.4457831
-0.31807229 0.18072289 1.4457831
-0.31084338 0.18072289 1.4457831
-0.30361447 0.18072289 1.4457831
-0.29285714 0.17857143 1.4285715
-0.2857143 0.17857143 1.4285715
-0.27857143 0.17857143 1.4285715
-0.2682353 0.17647059 1.4117647
-0.26428571 0.17857143 1.4285715
-0.25411764 0.17647059 1.4117647
-0.24705882 0.17647059 1.4117647
-0.23999999 0.17647059 1.4117647
-0.23294118 0.17647059 1.4117647
-0.22588235 0.17647059 1.4117647
-0.21882352 0.17647059 1.4117647
-0.21176471 0.17647059 1.4117647
-0.20470588 0.17647059 1.4117647
-0.19764706 0.17647059 1.4117647
-0.19058824 0.17647059 1.4117647
-0.18352941 0.17647059 1.4117647
-0.17647059 0.17647059 1.4117647
-0.16941176 0.17647059 1.4117647
-0.16235293 0.17647059 1.4117647
-0.15529412 0.17647059 1.4117647
-0.14823529 0.17647059 1.4117647
-0.14117648 0.17647059 1.4117647
-0.13411765 0.17647059 1.4117647
-0.12705882 0.17647059 1.4117647
-0.12 0.17647059 1.4117647
-0.11294118 0.17647059 1.4117647
-0.10588235 0.17647059 1.4117647
-0.098823532 0.17647059 1.4117647
-0.091764703 0.17647059 1.4117647
-0.084705882 0.17647059 1.4117647
-0.07764706 0.17647059 1.4117647
-0.070588239 0.17647059 1.4117647
-0.063529409 0.17647059 1.4117647
-0.056470588 0.17647059 1.4117647
-0.049411766 0.17647059 1.4117647
-0.042352941 0.17647059 1.4117647
-0.035294119 0.17647059 1.4117647
-0.027906977 0.1744186 1.3953488
-0.020930232 0.1744186 1.3953488
-0.013636364 0.17045455 1.3636364
-0.0068181818 0.17045455 1.3636364
0 0.16853933 1.3483146
0.0067415731 0.16853933 1.3483146
0.013483146 0.16853933 1.3483146
0.020224718 0.16853933 1.3483146
0.026373627 0.16483517 1.3186814
0.032967035 0.16483517 1.3186814
0.039560441 0.16483517 1.3186814
0.045652173 0.16304348 1.3043479
0.052173913 0.16304348 1.3043479
0.058695652 0.16304348 1.3043479
0.064516127 0.16129032 1.2903225
0.070967741 0.16129032 1.2903225
0.076595746 0.15957446 1.2765957
0.082978725 0.15957446 1.2765957
0.089361705 0.15957446 1.2765957
0.095744684 0.15957446 1.2765957
0.10212766 0.15957446 1.2765957
0.10736842 0.15789473 1.2631578
0.11368421 0.15789473 1.2631578
0.12 0.15789473 1.2631578
0.12631579 0.15789473 1.2631578
0.13263159 0.15789473 1.2631578
0.13894737 0.15789473 1.2631578
0.14375 0.15625 1.25
0.15000001 0.15625 1.25
0.15625 0.15625 1.25
0.16249999 0.15625 1.25
0.16875 0.15625 1.25
0.175 0.15625 1.25
0.18125001 0.15625 1.25
0.1875 0.15625 1.25
0.19578947 0.15789473 1.2631578
0.20210527 0.15789473 1.2631578
0.20842105 0.15789473 1.2631578
0.21473685 0.15789473 1.2631578
0.22105263 0.15789473 1.2631578
0.22736841 0.15789473 1.2631578
0.23125 0.15625 1.25
-0.53271025 0.14579439 1.1214954
-0.52710283 0.14579439 1.1214954
-0.52149534 0.14579439 1.1214954
-0.51588786 0.14579439 1.1214954
-0.51028037 0.14579439 1.1214954
-0.52427185 0.15145631 1.1650486
-0.51844662 0.15145631 1.1650486
-0.51262134 0.15145631 1.1650486
-0.50679612 0.15145631 1.1650486
-0.5009709 0.15145631 1.1650486
-0.49514562 0.15145631 1.1650486
-0.4893204 0.15145631 1.1650486
-0.49306932 0.15445544 1.1881188
-0.4969697 0.15757576 1.2121212
-0.4909091 0.15757576 1.2121212
-0.4848485 0.15757576 1.2121212
-0.47878787 0.15757576 1.2121212
-0.47272727 0.15757576 1.2121212
-0.46666667 0.15757576 1.2121212
-0.46530613 0.15918367 1.2244898
-0.45918366 0.15918367 1.2244898
-0.46250001 0.16249999 1.25
-0.45625001 0.16249999 1.25
-0.44999999 0.16249999 1.25
-0.44374999 0.16249999 1.25
-0.4375 0.16249999 1.25
-0.43125001 0.16249999 1.25
-0.34698796 0.1879518 1.4457831
-0.33975902 0.1879518 1.4457831
-0.33253011 0.1879518 1.4457831
-0.3253012 0.1879518 1.4457831
-0.31807229 0.1879518 1.4457831
-0.30714285 0.18571429 1.4285715
-0.30000001 0.18571429 1.4285715
-0.29285714 0.18571429 1.4285715
-0.28235295 0.18352941 1.4117647
-0.27529413 0.18352941 1.4117647
-0.2682353 0.18352941 1.4117647
-0.26117647 0.18352941 1.4117647
-0.25411764 0.18352941 1.4117647
-0.24705882 0.18352941 1.4117647
-0.23999999 0.18352941 1.4117647
-0.23294118 0.18352941 1.4117647
-0.22588235 0.18352941 1.4117647
-0.21882352 0.18352941 1.4117647
-0.21176471 0.18352941 1.4117647
-0.20470588 0.18352941 1.4117647
-0.19764706 0.18352941 1.4117647
-0.19058824 0.18352941 1.4117647
-0.18352941 0.18352941 1.4117647
-0.17647059 0.18352941 1.4117647
-0.16941176 0.18352941 1.4117647
-0.16235293 0.18352941 1.4117647
-0.15714286 0.18571429 1.4285715
-0.15000001 0.18571429 1.4285715
-0.14117648 0.18352941 1.4117647
-0.13571429 0.18571429 1.4285715
-0.12857144 0.18571429 1.4285715
-0.12142857 0.18571429 1.4285715
-0.11294118 0.18352941 1.4117647
-0.10588235 0.18352941 1.4117647
-0.098823532 0.18352941 1.4117647
-0.091764703 0.18352941 1.4117647
-0.085714288 0.18571429 1.4285715
-0.07764706 0.18352941 1.4117647
-0.070588239 0.18352941 1.4117647
-0.063529409 0.18352941 1.4117647
-0.056470588 0.18352941 1.4117647
-0.049411766 0.18352941 1.4117647
-0.042352941 0.18352941 1.4117647
-0.035294119 0.18352941 1.4117647
-0.028235294 0.18352941 1.4117647
-0.020930232 0.18139535 1.3953488
-0.013636364 0.17727272 1.3636364
-0.0068181818 0.17727272 1.3636364
0 0.1752809 1.3483146
0.0067415731 0.1752809 1.3483146
0.013483146 0.1752809 1.3483146
0.020224718 0.1752809 1.3483146
0.026373627 0.17142858 1.3186814
0.032967035 0.17142858 1.3186814
0.039560441 0.17142858 1.3186814
0.045652173 0.16956522 1.3043479
0.052173913 0.16956522 1.3043479
0.058695652 0.16956522 1.3043479
0.064516127 0.16774194 1.2903225
0.070967741 0.16774194 1.2903225
0.077419356 0.16774194 1.2903225
0.08387097 0.16774194 1.2903225
0.089361705 0.16595745 1.2765957
0.095744684 0.16595745 1.2765957
0.10212766 0.16595745 1.2765957
0.10736842 0.16421053 1.2631578
0.11489362 0.16595745 1.2765957
0.12 0.16421053 1.2631578
0.12631579 0.16421053 1.2631578
0.13263159 0.16421053 1.2631578
0.13894737 0.16421053 1.2631578
0.14526317 0.16421053 1.2631578
0.15000001 0.16249999 1.25
0.15957446 0.16595745 1.2765957
0.16421053 0.16421053 1.2631578
0.17052631 0.16421053 1.2631578
0.17684211 0.16421053 1.2631578
0.18315789 0.16421053 1.2631578
0.18947369 0.16421053 1.2631578
0.19578947 0.16421053 1.2631578
0.20210527 0.16421053 1.2631578
0.20842105 0.16421053 1.2631578
0.21473685 0.16421053 1.2631578
0.22105263 0.16421053 1.2631578
0.22736841 0.16421053 1.2631578
-0.53888887 0.15000001 1.1111112
-0.53333336 0.15000001 1.1111112
-0.53271025 0.15140186 1.1214954
-0.52710283 0.15140186 1.1214954
-0.52149534 0.15140186 1.1214954
-0.51588786 0.15140186 1.1214954
-0.51028037 0.15140186 1.1214954
-0.50943398 0.15283018 1.1320754
-0.50857145 0.15428571 1.1428572
-0.51262134 0.15728155 1.1650486
-0.50679612 0.15728155 1.1650486
-0.5009709 0.15728155 1.1650486
-0.49514562 0.15728155 1.1650486
-0.4893204 0.15728155 1.1650486
-0.49306932 0.16039604 1.1881188
-0.4871287 0.16039604 1.1881188
-0.4909091 0.16363636 1.2121212
-0.4848485 0.16363636 1.2121212
-0.47878787 0.16363636 1.2121212
-0.47272727 0.16363636 1.2121212
-0.46666667 0.16363636 1.2121212
-0.46530613 0.16530612 1.2244898
-0.45918366 0.16530612 1.2244898
-0.46250001 0.16875 1.25
-0.45625001 0.16875 1.25
-0.44999999 0.16875 1.25
-0.44374999 0.16875 1.25
-0.4375 0.16875 1.25
-0.43125001 0.16875 1.25
-0.42500001 0.16875 1.25
-0.4231579 0.17052631 1.2631578
-0.4168421 0.17052631 1.2631578
-0.40645161 0.17419355 1.2903225
-0.34698796 0.19518073 1.4457831
-0.33975902 0.19518073 1.4457831
-0.33253011 0.19518073 1.4457831
-0.3253012 0.19518073 1.4457831
-0.31428573 0.19285715 1.4285715
-0.30714285 0.19285715 1.4285715
-0.30000001 0.19285715 1.4285715
-0.29285714 0.19285715 1.4285715
-0.28235295 0.19058824 1.4117647
-0.27529413 0.19058824 1.4117647
-0.2682353 0.19058824 1.4117647
-0.26117647 0.19058824 1.4117647
-0.25411764 0.19058824 1.4117647
-0.24705882 0.19058824 1.4117647
-0.23999999 0.19058824 1.4117647
-0.23294118 0.19058824 1.4117647
-0.22588235 0.19058824 1.4117647
-0.21882352 0.19058824 1.4117647
-0.21176471 0.19058824 1.4117647
-0.20470588 0.19058824 1.4117647
-0.19764706 0.19058824 1.4117647
-0.19058824 0.19058824 1.4117647
-0.18352941 0.19058824 1.4117647
-0.17857143 0.19285715 1.4285715
-0.17142858 0.19285715 1.4285715
-0.16428572 0.19285715 1.4285715
-0.15714286 0.19285715 1.4285715
-0.15000001 0.19285715 1.4285715
-0.14285715 0.19285715 1.4285715
-0.13571429 0.19285715 1.4285715
-0.12857144 0.19285715 1.4285715
-0.12142857 0.19285715 1.4285715
-0.11428571 0.19285715 1.4285715
-0.10843374 0.19518073 1.4457831
-0.1 0.19285715 1.4285715
-0.092857145 0.19285715 1.4285715
-0.085714288 0.19285715 1.4285715
-0.078571431 0.19285715 1.4285715
-0.071428575 0.19285715 1.4285715
-0.063529409 0.19058824 1.4117647
-0.056470588 0.19058824 1.4117647
-0.050000001 0.19285715 1.4285715
-0.042857144 0.19285715 1.4285715
-0.035714287 0.19285715 1.4285715
-0.028571429 0.19285715 1.4285715
-0.02117647 0.19058824 1.4117647
-0.0068181818 0.18409091 1.3636364
0 0.18202247 1.3483146
0.0067415731 0.18202247 1.3483146
0.013483146 0.18202247 1.3483146
0.020224718 0.18202247 1.3483146
0.026966292 0.18202247 1.3483146
0.032967035 0.17802198 1.3186814
0.052173913 0.17608696 1.3043479
0.058064517 0.17419355 1.2903225
0.064516127 0.17419355 1.2903225
0.070967741 0.17419355 1.2903225
0.077419356 0.17419355 1.2903225
0.08387097 0.17419355 1.2903225
0.090322584 0.17419355 1.2903225
0.095744684 0.17234042 1.2765957
0.10212766 0.17234042 1.2765957
0.10851064 0.17234042 1.2765957
0.11489362 0.17234042 1.2765957
0.12127659 0.17234042 1.2765957
0.12631579 0.17052631 1.2631578
0.13263159 0.17052631 1.2631578
0.13894737 0.17052631 1.2631578
0.14526317 0.17052631 1.2631578
0.15319149 0.17234042 1.2765957
0.15957446 0.17234042 1.2765957
0.16595745 0.17234042 1.2765957
0.17052631 0.17052631 1.2631578
0.17872341 0.17234042 1.2765957
0.18510638 0.17234042 1.2765957
0.18947369 0.17052631 1.2631578
0.19578947 0.17052631 1.2631578
0.20210527 0.17052631 1.2631578
0.20842105 0.17052631 1.2631578
0.21473685 0.17052631 1.2631578
0.22105263 0.17052631 1.2631578
0.22736841 0.17052631 1.2631578
-0.53888887 0.15555556 1.1111112
-0.53333336 0.15555556 1.1111112
-0.52777779 0.15555556 1.1111112
-0.52222222 0.15555556 1.1111112
-0.52149534 0.15700935 1.1214954
-0.51588786 0.15700935 1.1214954
-0.51028037 0.15700935 1.1214954
-0.50943398 0.15849057 1.1320754
-0.50857145 0.16 1.1428572
-0.50285715 0.16 1.1428572
-0.50192308 0.16153847 1.1538461
-0.5009709 0.1631068 1.1650486
-0.49514562 0.1631068 1.1650486
-0.4893204 0.1631068 1.1650486
-0.49306932 0.16633664 1.1881188
-0.4871287 0.16633664 1.1881188
-0.48118812 0.16633664 1.1881188
-0.47999999 0.168 1.2
-0.47878787 0.16969697 1.2121212
-0.47272727 0.16969697 1.2121212
-0.46666667 0.16969697 1.2121212
-0.46530613 0.17142858 1.2244898
-0.46391752 0.17319588 1.2371134
-0.45773196 0.17319588 1.2371134
-0.45625001 0.175 1.25
-0.44999999 0.175 1.25
-0.44374999 0.175 1.25
-0.4375 0.175 1.25
-0.43125001 0.175 1.25
-0.42500001 0.175 1.25
-0.4231579 0.17684211 1.2631578
-0.4168421 0.17684211 1.2631578
-0.41052631 0.17684211 1.2631578
-0.41290322 0.18064517 1.2903225
-0.40645161 0.18064517 1.2903225
-0.40000001 0.18064517 1.2903225
-0.3935484 0.18064517 1.2903225
-0.34999999 0.2 1.4285715
-0.34698796 0.20240964 1.4457831
-0.33975902 0.20240964 1.4457831
-0.33253011 0.20240964 1.4457831
-0.3253012 0.20240964 1.4457831
-0.31428573 0.2 1.4285715
-0.30714285 0.2 1.4285715
-0.30000001 0.2 1.4285715
-0.29285714 0.2 1.4285715
-0.28235295 0.19764706 1.4117647
-0.27529413 0.19764706 1.4117647
-0.2682353 0.19764706 1.4117647
-0.26117647 0.19764706 1.4117647
-0.25411764 0.19764706 1.4117647
-0.24705882 0.19764706 1.4117647
-0.23999999 0.19764706 1.4117647
-0.23294118 0.19764706 1.4117647
-0.22588235 0.19764706 1.4117647
-0.21882352 0.19764706 1.4117647
-0.21176471 0.19764706 1.4117647
-0.20470588 0.19764706 1.4117647
-0.19764706 0.19764706 1.4117647
-0.19058824 0.19764706 1.4117647
-0.18352941 0.19764706 1.4117647
-0.17857143 0.2 1.4285715
-0.17142858 0.2 1.4285715
-0.16428572 0.2 1.4285715
-0.15714286 0.2 1.4285715
-0.15000001 0.2 1.4285715
-0.14285715 0.2 1.4285715
-0.13571429 0.2 1.4285715
-0.12857144 0.2 1.4285715
-0.12142857 0.2 1.4285715
-0.11566265 0.20240964 1.4457831
-0.10843374 0.20240964 1.4457831
-0.10120482 0.20240964 1.4457831
-0.093975902 0.20240964 1.4457831
-0.085714288 0.2 1.4285715
-0.078571431 0.2 1.4285715
-0.071428575 0.2 1.4285715
-0.063529409 0.19764706 1.4117647
-0.056470588 0.19764706 1.4117647
-0.050000001 0.2 1.4285715
-0.042857144 0.2 1.4285715
-0.035714287 0.2 1.4285715
-0.028571429 0.2 1.4285715
0.013483146 0.18876405 1.3483146
0.070967741 0.18064517 1.2903225
0.077419356 0.18064517 1.2903225
0.08387097 0.18064517 1.2903225
0.090322584 0.18064517 1.2903225
0.096774191 0.18064517 1.2903225
0.10212766 0.17872341 1.2765957
0.10851064 0.17872341 1.2765957
0.11489362 0.17872341 1.2765957
0.12127659 0.17872341 1.2765957
0.12631579 0.17684211 1.2631578
0.13263159 0.17684211 1.2631578
0.13894737 0.17684211 1.2631578
0.14526317 0.17684211 1.2631578
0.15319149 0.17872341 1.2765957
0.15957446 0.17872341 1.2765957
0.16595745 0.17872341 1.2765957
0.17234042 0.17872341 1.2765957
0.17872341 0.17872341 1.2765957
0.18510638 0.17872341 1.2765957
0.19148937 0.17872341 1.2765957
0.19578947 0.17684211 1.2631578
0.20210527 0.17684211 1.2631578
0.21473685 0.17684211 1.2631578
-0.54444444 0.16111112 1.1111112
-0.53888887 0.16111112 1.1111112
-0.53333336 0.16111112 1.1111112
-0.52777779 0.16111112 1.1111112
-0.52222222 0.16111112 1.1111112
-0.52149534 0.16261682 1.1214954
-0.51588786 0.16261682 1.1214954
-0.51028037 0.16261682 1.1214954
-0.50943398 0.16415094 1.1320754
-0.50857145 0.16571428 1.1428572
-0.50285715 0.16571428 1.1428572
-0.50192308 0.16730769 1.1538461
-0.49615383 0.16730769 1.1538461
-0.49514562 0.16893204 1.1650486
-0.4893204 0.16893204 1.1650486
-0.48823529 0.17058824 1.1764706
-0.4871287 0.17227723 1.1881188
-0.48118812 0.17227723 1.1881188
-0.47999999 0.17399999 1.2
-0.47400001 0.17399999 1.2
-0.46799999 0.17399999 1.2
-0.46666667 0.17575757 1.2121212
-0.46060607 0.17575757 1.2121212
-0.45454547 0.17575757 1.2121212
-0.45773196 0.17938145 1.2371134
-0.4515464 0.17938145 1.2371134
-0.44536084 0.17938145 1.2371134
-0.44374999 0.18125001 1.25
-0.4375 0.18125001 1.25
-0.43125001 0.18125001 1.25
-0.42500001 0.18125001 1.25
-0.4231579 0.18315789 1.2631578
-0.4168421 0.18315789 1.2631578
-0.41052631 0.18315789 1.2631578
-0.41290322 0.18709677 1.2903225
-0.40645161 0.18709677 1.2903225
-0.40000001 0.18709677 1.2903225
-0.3935484 0.18709677 1.2903225
-0.36923078 0.19120879 1.3186814
-0.3505618 0.19550562 1.3483146
-0.34772727 0.19772728 1.3636364
-0.34999999 0.20714286 1.4285715
-0.34285715 0.20714286 1.4285715
-0.33571428 0.20714286 1.4285715
-0.33253011 0.20963855 1.4457831
-0.32142857 0.20714286 1.4285715
-0.31428573 0.20714286 1.4285715
-0.30714285 0.20714286 1.4285715
-0.29647058 0.20470588 1.4117647
-0.28941175 0.20470588 1.4117647
-0.28235295 0.20470588 1.4117647
-0.27529413 0.20470588 1.4117647
-0.2682353 0.20470588 1.4117647
-0.26117647 0.20470588 1.4117647
-0.25411764 0.20470588 1.4117647
-0.24705882 0.20470588 1.4117647
-0.23999999 0.20470588 1.4117647
-0.23294118 0.20470588 1.4117647
-0.22588235 0.20470588 1.4117647
-0.21882352 0.20470588 1.4117647
-0.21176471 0.20470588 1.4117647
-0.20470588 0.20470588 1.4117647
-0.19764706 0.20470588 1.4117647
-0.19058824 0.20470588 1.4117647
-0.18352941 0.20470588 1.4117647
-0.17647059 0.20470588 1.4117647
-0.17142858 0.20714286 1.4285715
-0.16428572 0.20714286 1.4285715
-0.15714286 0.20714286 1.4285715
-0.15000001 0.20714286 1.4285715
-0.14285715 0.20714286 1.4285715
-0.13571429 0.20714286 1.4285715
-0.12857144 0.20714286 1.4285715
-0.12142857 0.20714286 1.4285715
-0.11566265 0.20963855 1.4457831
-0.10843374 0.20963855 1.4457831
-0.10120482 0.20963855 1.4457831
-0.093975902 0.20963855 1.4457831
-0.087804876 0.21219513 1.4634147
-0.080487803 0.21219513 1.4634147
-0.073170729 0.21219513 1.4634147
-0.065853655 0.21219513 1.4634147
-0.057142857 0.20714286 1.4285715
-0.050000001 0.20714286 1.4285715
-0.042857144 0.20714286 1.4285715
-0.035714287 0.20714286 1.4285715
-0.028571429 0.20714286 1.4285715
0.08387097 0.18709677 1.2903225
0.11489362 0.18510638 1.2765957
0.12631579 0.18315789 1.2631578
0.13894737 0.18315789 1.2631578
0.15319149 0.18510638 1.2765957
0.15957446 0.18510638 1.2765957
0.16595745 0.18510638 1.2765957
0.17234042 0.18510638 1.2765957
0.17872341 0.18510638 1.2765957
0.18510638 0.18510638 1.2765957
0.19148937 0.18510638 1.2765957
0.19787234 0.18510638 1.2765957
-0.54000002 0.16363636 1.0909091
-0.53454548 0.16363636 1.0909091
-0.53394496 0.16513762 1.1009175
-0.52844036 0.16513762 1.1009175
-0.52293581 0.16513762 1.1009175
-0.52222222 0.16666667 1.1111112
-0.52149534 0.1682243 1.1214954
-0.51588786 0.1682243 1.1214954
-0.51028037 0.1682243 1.1214954
-0.50943398 0.16981132 1.1320754
-0.50857145 0.17142858 1.1428572
-0.50285715 0.17142858 1.1428572
-0.50192308 0.17307693 1.1538461
-0.49615383 0.17307693 1.1538461
-0.49514562 0.17475729 1.1650486
-0.4893204 0.17475729 1.1650486
-0.48823529 0.17647059 1.1764706
-0.48235294 0.17647059 1.1764706
-0.47647059 0.17647059 1.1764706
-0.47524753 0.17821783 1.1881188
-0.47400001 0.18000001 1.2
-0.46799999 0.18000001 1.2
-0.46200001 0.18000001 1.2
-0.456 0.18000001 1.2
-0.45454547 0.18181819 1.2121212
-0.45306122 0.18367347 1.2244898
-0.4515464 0.18556701 1.2371134
-0.44081631 0.18367347 1.2244898
-0.43917525 0.18556701 1.2371134
-0.43298969 0.18556701 1.2371134
-0.43125001 0.1875 1.25
-0.42500001 0.1875 1.25
-0.4231579 0.18947369 1.2631578
-0.4168421 0.18947369 1.2631578
-0.41052631 0.18947369 1.2631578
-0.41290322 0.19354838 1.2903225
-0.40645161 0.19354838 1.2903225
-0.40000001 0.19354838 1.2903225
-0.3935484 0.19354838 1.2903225
-0.38709676 0.19354838 1.2903225
-0.38064516 0.19354838 1.2903225
-0.38241759 0.1978022 1.3186814
-0.37582418 0.1978022 1.3186814
-0.36923078 0.1978022 1.3186814
-0.36263737 0.1978022 1.3186814
-0.35604396 0.1978022 1.3186814
-0.35730338 0.20224719 1.3483146
-0.3505618 0.20224719 1.3483146
-0.34772727 0.20454545 1.3636364
-0.34090909 0.20454545 1.3636364
-0.34999999 0.21428572 1.4285715
-0.34285715 0.21428572 1.4285715
-0.33571428 0.21428572 1.4285715
-0.32857144 0.21428572 1.4285715
-0.32142857 0.21428572 1.4285715
-0.31058824 0.21176471 1.4117647
-0.30352941 0.21176471 1.4117647
-0.29647058 0.21176471 1.4117647
-0.28941175 0.21176471 1.4117647
-0.28235295 0.21176471 1.4117647
-0.27529413 0.21176471 1.4117647
-0.2682353 0.21176471 1.4117647
-0.26117647 0.21176471 1.4117647
-0.25411764 0.21176471 1.4117647
-0.24705882 0.21176471 1.4117647
-0.23999999 0.21176471 1.4117647
-0.23294118 0.21176471 1.4117647
-0.22588235 0.21176471 1.4117647
-0.21882352 0.21176471 1.4117647
-0.21176471 0.21176471 1.4117647
-0.20470588 0.21176471 1.4117647
-0.19764706 0.21176471 1.4117647
-0.19058824 0.21176471 1.4117647
-0.18352941 0.21176471 1.4117647
-0.17647059 0.21176471 1.4117647
-0.17142858 0.21428572 1.4285715
-0.16428572 0.21428572 1.4285715
-0.15714286 0.21428572 1.4285715
-0.15000001 0.21428572 1.4285715
-0.14285715 0.21428572 1.4285715
-0.13571429 0.21428572 1.4285715
-0.13012049 0.21686748 1.4457831
-0.12289157 0.21686748 1.4457831
-0.11566265 0.21686748 1.4457831
-0.1097561 0.21951219 1.4634147
-0.10243902 0.21951219 1.4634147
-0.09512195 0.21951219 1.4634147
-0.090000004 0.22499999 1.5
-0.080487803 0.21951219 1.4634147
-0.073170729 0.21951219 1.4634147
-0.065853655 0.21951219 1.4634147
-0.042857144 0.21428572 1.4285715
0.16595745 0.19148937 1.2765957
0.17872341 0.19148937 1.2765957
0.18510638 0.19148937 1.2765957
-0.54545456 0.16909091 1.0909091
-0.54000002 0.16909091 1.0909091
-0.53454548 0.16909091 1.0909091
-0.52909088 0.16909091 1.0909091
-0.52844036 0.1706422 1.1009175
-0.52293581 0.1706422 1.1009175
-0.5174312 0.1706422 1.1009175
-0.51666665 0.17222223 1.1111112
-0.51588786 0.17383178 1.1214954
-0.51028037 0.17383178 1.1214954
-0.50943398 0.17547169 1.1320754
-0.50377357 0.17547169 1.1320754
-0.50285715 0.17714286 1.1428572
-0.50192308 0.17884615 1.1538461
-0.49615383 0.17884615 1.1538461
-0.49038461 0.17884615 1.1538461
-0.4893204 0.18058252 1.1650486
-0.48349515 0.18058252 1.1650486
-0.48235294 0.18235295 1.1764706
-0.47647059 0.18235295 1.1764706
-0.47524753 0.18415841 1.1881188
-0.46930692 0.18415841 1.1881188
-0.46799999 0.186 1.2
-0.46200001 0.186 1.2
-0.46060607 0.18787879 1.2121212
-0.45454547 0.18787879 1.2121212
-0.45306122 0.18979591 1.2244898
-0.44693878 0.18979591 1.2244898
-0.44081631 0.18979591 1.2244898
-0.43917525 0.19175258 1.2371134
-0.43298969 0.19175258 1.2371134
-0.42680413 0.19175258 1.2371134
-0.42500001 0.19374999 1.25
-0.4231579 0.19578947 1.2631578
-0.4168421 0.19578947 1.2631578
-0.41052631 0.19578947 1.2631578
-0.41290322 0.2 1.2903225
-0.40645161 0.2 1.2903225
-0.39574468 0.19787234 1.2765957
-0.3935484 0.2 1.2903225
-0.38709676 0.2 1.2903225
-0.38064516 0.2 1.2903225
-0.38241759 0.20439561 1.3186814
-0.37582418 0.20439561 1.3186814
-0.36923078 0.20439561 1.3186814
-0.36263737 0.20439561 1.3186814
-0.35604396 0.20439561 1.3186814
-0.35730338 0.20898877 1.3483146
-0.3505618 0.20898877 1.3483146
-0.34772727 0.21136364 1.3636364
-0.34090909 0.21136364 1.3636364
-0.34999999 0.22142857 1.4285715
-0.34285715 0.22142857 1.4285715
-0.33571428 0.22142857 1.4285715
-0.32857144 0.22142857 1.4285715
-0.31764707 0.21882352 1.4117647
-0.31058824 0.21882352 1.4117647
-0.30352941 0.21882352 1.4117647
-0.29647058 0.21882352 1.4117647
-0.2860465 0.21627907 1.3953488
-0.27906978 0.21627907 1.3953488
-0.27209303 0.21627907 1.3953488
-0.26511627 0.21627907 1.3953488
-0.25813952 0.21627907 1.3953488
-0.2511628 0.21627907 1.3953488
-0.24418604 0.21627907 1.3953488
-0.23999999 0.21882352 1.4117647
-0.23294118 0.21882352 1.4117647
-0.22325581 0.21627907 1.3953488
-0.21882352 0.21882352 1.4117647
-0.21176471 0.21882352 1.4117647
-0.20470588 0.21882352 1.4117647
-0.19764706 0.21882352 1.4117647
-0.19058824 0.21882352 1.4117647
-0.18352941 0.21882352 1.4117647
-0.17647059 0.21882352 1.4117647
-0.17142858 0.22142857 1.4285715
-0.16428572 0.22142857 1.4285715
-0.15714286 0.22142857 1.4285715
-0.15000001 0.22142857 1.4285715
-0.14285715 0.22142857 1.4285715
-0.1373494 0.22409639 1.4457831
-0.13012049 0.22409639 1.4457831
-0.12289157 0.22409639 1.4457831
-0.11566265 0.22409639 1.4457831
-0.1097561 0.22682928 1.4634147
-0.10243902 0.22682928 1.4634147
-0.097499996 0.2325 1.5
-0.090000004 0.2325 1.5
-0.082500003 0.2325 1.5
-0.075000003 0.2325 1.5
-0.065853655 0.22682928 1.4634147
-0.54545456 0.17454545 1.0909091
-0.54000002 0.17454545 1.0909091
-0.53454548 0.17454545 1.0909091
-0.52909088 0.17454545 1.0909091
-0.52363634 0.17454545 1.0909091
-0.52293581 0.17614679 1.1009175
-0.52222222 0.17777778 1.1111112
-0.51666665 0.17777778 1.1111112
-0.51111114 0.17777778 1.1111112
-0.51028037 0.17943925 1.1214954
-0.50943398 0.18113208 1.1320754
-0.50377357 0.18113208 1.1320754
-0.50285715 0.18285714 1.1428572
-0.49714285 0.18285714 1.1428572
-0.49615383 0.18461539 1.1538461
-0.49038461 0.18461539 1.1538461
-0.48461539 0.18461539 1.1538461
-0.48349515 0.18640776 1.1650486
-0.47766989 0.18640776 1.1650486
-0.47647059 0.1882353 1.1764706
-0.47058824 0.1882353 1.1764706
-0.47400001 0.192 1.2
-0.46799999 0.192 1.2
-0.46200001 0.192 1.2
-0.46060607 0.19393939 1.2121212
-0.45454547 0.19393939 1.2121212
-0.44848484 0.19393939 1.2121212
-0.44693878 0.19591837 1.2244898
-0.44081631 0.19591837 1.2244898
-0.43917525 0.19793814 1.2371134
-0.43298969 0.19793814 1.2371134
-0.42680413 0.19793814 1.2371134
-0.42500001 0.2 1.25
-0.41874999 0.2 1.25
-0.41249999 0.2 1.25
-0.40625 0.2 1.25
-0.40421054 0.20210527 1.2631578
-0.40212765 0.20425531 1.2765957
-0.39574468 0.20425531 1.2765957
-0.3935484 0.20645161 1.2903225
-0.38709676 0.20645161 1.2903225
-0.38064516 0.20645161 1.2903225
-0.38241759 0.21098901 1.3186814
-0.37582418 0.21098901 1.3186814
-0.36923078 0.21098901 1.3186814
-0.36263737 0.21098901 1.3186814
-0.35604396 0.21098901 1.3186814
-0.35730338 0.21573034 1.3483146
-0.3505618 0.21573034 1.3483146
-0.34772727 0.21818182 1.3636364
-0.34090909 0.21818182 1.3636364
-0.33409092 0.21818182 1.3636364
-0.33103448 0.22068965 1.3793104
-0.32413793 0.22068965 1.3793104
-0.32470587 0.22588235 1.4117647
-0.31764707 0.22588235 1.4117647
-0.31058824 0.22588235 1.4117647
-0.30352941 0.22588235 1.4117647
-0.29302326 0.22325581 1.3953488
-0.2860465 0.22325581 1.3953488
-0.27906978 0.22325581 1.3953488
-0.27209303 0.22325581 1.3953488
-0.26511627 0.22325581 1.3953488
-0.25813952 0.22325581 1.3953488
-0.2511628 0.22325581 1.3953488
-0.24418604 0.22325581 1.3953488
-0.23720931 0.22325581 1.3953488
-0.23023255 0.22325581 1.3953488
-0.22325581 0.22325581 1.3953488
-0.21627907 0.22325581 1.3953488
-0.21176471 0.22588235 1.4117647
-0.20232558 0.22325581 1.3953488
-0.19764706 0.22588235 1.4117647
-0.19058824 0.22588235 1.4117647
-0.18352941 0.22588235 1.4117647
-0.17857143 0.22857143 1.4285715
-0.17142858 0.22857143 1.4285715
-0.16428572 0.22857143 1.4285715
-0.15714286 0.22857143 1.4285715
-0.15000001 0.22857143 1.4285715
-0.14285715 0.22857143 1.4285715
-0.1373494 0.2313253 1.4457831
-0.13012049 0.2313253 1.4457831
-0.12289157 0.2313253 1.4457831
-0.11566265 0.2313253 1.4457831
-0.1097561 0.23414634 1.4634147
-0.1037037 0.23703703 1.4814814
-0.096296296 0.23703703 1.4814814
-0.090000004 0.23999999 1.5
-0.082500003 0.23999999 1.5
-0.075000003 0.23999999 1.5
-0.5509091 0.18000001 1.0909091
-0.54545456 0.18000001 1.0909091
-0.54000002 0.18000001 1.0909091
-0.53454548 0.18000001 1.0909091
-0.52909088 0.18000001 1.0909091
-0.52844036 0.18165137 1.1009175
-0.52293581 0.18165137 1.1009175
-0.52222222 0.18333334 1.1111112
-0.51666665 0.18333334 1.1111112
-0.51588786 0.18504673 1.1214954
-0.51028037 0.18504673 1.1214954
-0.50467288 0.18504673 1.1214954
-0.50377357 0.18679245 1.1320754
-0.50285715 0.18857142 1.1428572
-0.49714285 0.18857142 1.1428572
-0.49615383 0.19038461 1.1538461
-0.49038461 0.19038461 1.1538461
-0.4893204 0.19223301 1.1650486
-0.48349515 0.19223301 1.1650486
-0.48235294 0.19411765 1.1764706
-0.47647059 0.19411765 1.1764706
-0.47058824 0.19411765 1.1764706
-0.46930692 0.1960396 1.1881188
-0.46336633 0.1960396 1.1881188
-0.46200001 0.198 1.2
-0.456 0.198 1.2
-0.45454547 0.2 1.2121212
-0.44848484 0.2 1.2121212
-0.44693878 0.20204082 1.2244898
-0.44081631 0.20204082 1.2244898
-0.43469387 0.20204082 1.2244898
-0.43298969 0.20412371 1.2371134
-0.42680413 0.20412371 1.2371134
-0.42061856 0.20412371 1.2371134
-0.41874999 0.20625 1.25
-0.41249999 0.20625 1.25
-0.40625 0.20625 1.25
-0.40421054 0.20842105 1.2631578
-0.39789474 0.20842105 1.2631578
-0.39574468 0.2106383 1.2765957
-0.3935484 0.21290323 1.2903225
-0.38709676 0.21290323 1.2903225
-0.38064516 0.21290323 1.2903225
-0.38241759 0.21758242 1.3186814
-0.37582418 0.21758242 1.3186814
-0.36923078 0.21758242 1.3186814
-0.36263737 0.21758242 1.3186814
-0.36404493 0.22247191 1.3483146
-0.35730338 0.22247191 1.3483146
-0.3505618 0.22247191 1.3483146
-0.34772727 0.22499999 1.3636364
-0.34090909 0.22499999 1.3636364
-0.33793104 0.22758621 1.3793104
-0.33103448 0.22758621 1.3793104
-0.32413793 0.22758621 1.3793104
-0.31724137 0.22758621 1.3793104
-0.31764707 0.23294118 1.4117647
-0.31058824 0.23294118 1.4117647
-0.30000001 0.23023255 1.3953488
-0.29302326 0.23023255 1.3953488
-0.2860465 0.23023255 1.3953488
-0.27906978 0.23023255 1.3953488
-0.27209303 0.23023255 1.3953488
-0.26511627 0.23023255 1.3953488
-0.25813952 0.23023255 1.3953488
-0.2511628 0.23023255 1.3953488
-0.24418604 0.23023255 1.3953488
-0.23720931 0.23023255 1.3953488
-0.23023255 0.23023255 1.3953488
-0.22325581 0.23023255 1.3953488
-0.21627907 0.23023255 1.3953488
-0.20930232 0.23023255 1.3953488
-0.20232558 0.23023255 1.3953488
-0.19764706 0.23294118 1.4117647
-0.19058824 0.23294118 1.4117647
-0.18352941 0.23294118 1.4117647
-0.17647059 0.23294118 1.4117647
-0.17142858 0.23571429 1.4285715
-0.16428572 0.23571429 1.4285715
-0.15714286 0.23571429 1.4285715
-0.15000001 0.23571429 1.4285715
-0.14457831 0.23855421 1.4457831
-0.1373494 0.23855421 1.4457831
-0.13012049 0.23855421 1.4457831
-0.12439024 0.24146341 1.4634147
-0.11707317 0.24146341 1.4634147
-0.1097561 0.24146341 1.4634147
-0.1037037 0.24444444 1.4814814
-0.096296296 0.24444444 1.4814814
-0.088888891 0.24444444 1.4814814
-0.081481479 0.24444444 1.4814814
-0.075000003 0.2475 1.5
-0.55135137 0.18378378 1.081081
-0.54594594 0.18378378 1.081081
-0.54054052 0.18378378 1.081081
-0.54000002 0.18545455 1.0909091
-0.53454548 0.18545455 1.0909091
-0.52909088 0.18545455 1.0909091
-0.52844036 0.18715596 1.1009175
-0.52293581 0.18715596 1.1009175
-0.52222222 0.18888889 1.1111112
-0.51666665 0.18888889 1.1111112
-0.51588786 0.1906542 1.1214954
-0.51028037 0.1906542 1.1214954
-0.50943398 0.19245283 1.1320754
-0.50377357 0.19245283 1.1320754
-0.49811321 0.19245283 1.1320754
-0.49714285 0.19428572 1.1428572
-0.49615383 0.19615385 1.1538461
-0.49514562 0.19805825 1.1650486
-0.4893204 0.19805825 1.1650486
-0.48349515 0.19805825 1.1650486
-0.47766989 0.19805825 1.1650486
-0.47647059 0.2 1.1764706
-0.47524753 0.2019802 1.1881188
-0.46930692 0.2019802 1.1881188
-0.46336633 0.2019802 1.1881188
-0.46200001 0.204 1.2
-0.456 0.204 1.2
-0.44999999 0.204 1.2
-0.44848484 0.2060606 1.2121212
-0.44242424 0.2060606 1.2121212
-0.44081631 0.20816326 1.2244898
-0.43469387 0.20816326 1.2244898
-0.42857143 0.20816326 1.2244898
-0.42680413 0.21030928 1.2371134
-0.42061856 0.21030928 1.2371134
-0.41874999 0.21250001 1.25
-0.41249999 0.21250001 1.25
-0.40625 0.21250001 1.25
-0.40421054 0.21473685 1.2631578
-0.39789474 0.21473685 1.2631578
-0.39157894 0.21473685 1.2631578
-0.3935484 0.21935484 1.2903225
-0.38709676 0.21935484 1.2903225
-0.38064516 0.21935484 1.2903225
-0.37419355 0.21935484 1.2903225
-0.37582418 0.22417583 1.3186814
-0.36923078 0.22417583 1.3186814
-0.36263737 0.22417583 1.3186814
-0.35604396 0.22417583 1.3186814
-0.35333332 0.22666667 1.3333334
-0.3505618 0.22921348 1.3483146
-0.34382021 0.22921348 1.3483146
-0.33707866 0.22921348 1.3483146
-0.33409092 0.23181818 1.3636364
-0.33103448 0.23448277 1.3793104
-0.32413793 0.23448277 1.3793104
-0.31724137 0.23448277 1.3793104
-0.31034482 0.23448277 1.3793104
-0.30697674 0.23720931 1.3953488
-0.30000001 0.23720931 1.3953488
-0.29302326 0.23720931 1.3953488
-0.2860465 0.23720931 1.3953488
-0.27906978 0.23720931 1.3953488
-0.27209303 0.23720931 1.3953488
-0.26511627 0.23720931 1.3953488
-0.25813952 0.23720931 1.3953488
-0.2511628 0.23720931 1.3953488
-0.24418604 0.23720931 1.3953488
-0.23720931 0.23720931 1.3953488
-0.23023255 0.23720931 1.3953488
-0.22325581 0.23720931 1.3953488
-0.21627907 0.23720931 1.3953488
-0.20930232 0.23720931 1.3953488
-0.20232558 0.23720931 1.3953488
-0.19764706 0.23999999 1.4117647
-0.19058824 0.23999999 1.4117647
-0.18352941 0.23999999 1.4117647
-0.17647059 0.23999999 1.4117647
-0.17142858 0.24285714 1.4285715
-0.16428572 0.24285714 1.4285715
-0.15714286 0.24285714 1.4285715
-0.15180723 0.24578314 1.4457831
-0.14457831 0.24578314 1.4457831
-0.1373494 0.24578314 1.4457831
-0.13012049 0.24578314 1.4457831
-0.12439024 0.24878049 1.4634147
-0.11707317 0.24878049 1.4634147
-0.1097561 0.24878049 1.4634147
-0.1037037 0.25185186 1.4814814
-0.096296296 0.25185186 1.4814814
-0.088888891 0.25185186 1.4814814
-0.081481479 0.25185186 1.4814814
-0.55135137 0.1891892 1.081081
-0.54594594 0.1891892 1.081081
-0.54054052 0.1891892 1.081081
-0.53513515 0.1891892 1.081081
-0.53454548 0.19090909 1.0909091
-0.52909088 0.19090909 1.0909091
-0.52363634 0.19090909 1.0909091
-0.52777779 0.19444445 1.1111112
-0.52222222 0.19444445 1.1111112
-0.51666665 0.19444445 1.1111112
-0.51588786 0.19626169 1.1214954
-0.51509434 0.1981132 1.1320754
-0.50943398 0.1981132 1.1320754
-0.50377357 0.1981132 1.1320754
-0.50285715 0.2 1.1428572
-0.49714285 0.2 1.1428572
-0.49615383 0.20192307 1.1538461
-0.49038461 0.20192307 1.1538461
-0.4893204 0.2038835 1.1650486
-0.48349515 0.2038835 1.1650486
-0.48235294 0.20588236 1.1764706
-0.47647059 0.20588236 1.1764706
-0.47058824 0.20588236 1.1764706
-0.46930692 0.20792079 1.1881188
-0.46336633 0.20792079 1.1881188
-0.46200001 0.20999999 1.2
-0.456 0.20999999 1.2
-0.44999999 0.20999999 1.2
-0.44400001 0.20999999 1.2
-0.44242424 0.21212122 1.2121212
-0.43636364 0.21212122 1.2121212
-0.43469387 0.21428572 1.2244898
-0.42857143 0.21428572 1.2244898
-0.42244899 0.21428572 1.2244898
-0.42061856 0.21649484 1.2371134
-0.41874999 0.21875 1.25
-0.41249999 0.21875 1.25
-0.40625 0.21875 1.25
-0.40421054 0.22105263 1.2631578
-0.39789474 0.22105263 1.2631578
-0.39157894 0.22105263 1.2631578
-0.3935484 0.22580644 1.2903225
-0.38709676 0.22580644 1.2903225
-0.38064516 0.22580644 1.2903225
-0.37419355 0.22580644 1.2903225
-0.36774194 0.22580644 1.2903225
-0.36923078 0.23076923 1.3186814
-0.36263737 0.23076923 1.3186814
-0.35604396 0.23076923 1.3186814
-0.35333332 0.23333333 1.3333334
-0.34666666 0.23333333 1.3333334
-0.34382021 0.23595506 1.3483146
-0.33707866 0.23595506 1.3483146
-0.33409092 0.23863636 1.3636364
-0.32727271 0.23863636 1.3636364
-0.32413793 0.24137931 1.3793104
-0.31724137 0.24137931 1.3793104
-0.31034482 0.24137931 1.3793104
-0.30697674 0.24418604 1.3953488
-0.30000001 0.24418604 1.3953488
-0.29302326 0.24418604 1.3953488
-0.2860465 0.24418604 1.3953488
-0.27906978 0.24418604 1.3953488
-0.27209303 0.24418604 1.3953488
-0.26511627 0.24418604 1.3953488
-0.25813952 0.24418604 1.3953488
-0.24827586 0.24137931 1.3793104
-0.24137931 0.24137931 1.3793104
-0.23448277 0.24137931 1.3793104
-0.22758621 0.24137931 1.3793104
-0.22068965 0.24137931 1.3793104
-0.21627907 0.24418604 1.3953488
-0.20930232 0.24418604 1.3953488
-0.20232558 0.24418604 1.3953488
-0.19534884 0.24418604 1.3953488
-0.19058824 0.24705882 1.4117647
-0.18352941 0.24705882 1.4117647
-0.17647059 0.24705882 1.4117647
-0.17142858 0.25 1.4285715
-0.16428572 0.25 1.4285715
-0.15714286 0.25 1.4285715
-0.15000001 0.25 1.4285715
-0.14457831 0.25301206 1.4457831
-0.1373494 0.25301206 1.4457831
-0.13170731 0.25609756 1.4634147
-0.12439024 0.25609756 1.4634147
-0.11707317 0.25609756 1.4634147
-0.1097561 0.25609756 1.4634147
-0.1037037 0.25925925 1.4814814
-0.096296296 0.25925925 1.4814814
-0.088888891 0.25925925 1.4814814
-0.081481479 0.25925925 1.4814814
-0.55675673 0.19459459 1.081081
-0.55135137 0.19459459 1.081081
-0.54594594 0.19459459 1.081081
-0.54054052 0.19459459 1.081081
-0.53513515 0.19459459 1.081081
-0.53454548 0.19636364 1.0909091
-0.52909088 0.19636364 1.0909091
-0.52844036 0.19816513 1.1009175
-0.52293581 0.19816513 1.1009175
-0.52222222 0.2 1.1111112
-0.52149534 0.20186916 1.1214954
-0.51588786 0.20186916 1.1214954
-0.51028037 0.20186916 1.1214954
-0.50943398 0.20377359 1.1320754
-0.50377357 0.20377359 1.1320754
-0.49811321 0.20377359 1.1320754
-0.49714285 0.20571429 1.1428572
-0.49615383 0.20769231 1.1538461
-0.49038461 0.20769231 1.1538461
-0.48461539 0.20769231 1.1538461
-0.48349515 0.20970874 1.1650486
-0.47766989 0.20970874 1.1650486
-0.47647059 0.21176471 1.1764706
-0.47524753 0.21386139 1.1881188
-0.46930692 0.21386139 1.1881188
-0.46336633 0.21386139 1.1881188
-0.45742574 0.21386139 1.1881188
-0.456 0.21600001 1.2
-0.44999999 0.21600001 1.2
-0.44848484 0.21818182 1.2121212
-0.44242424 0.21818182 1.2121212
-0.43636364 0.21818182 1.2121212
-0.43469387 0.22040816 1.2244898
-0.42857143 0.22040816 1.2244898
-0.42244899 0.22040816 1.2244898
-0.41632652 0.22040816 1.2244898
-0.41874999 0.22499999 1.25
-0.41249999 0.22499999 1.25
-0.40625 0.22499999 1.25
-0.40000001 0.22499999 1.25
-0.39375001 0.22499999 1.25
-0.39157894 0.22736841 1.2631578
-0.38526314 0.22736841 1.2631578
-0.38297874 0.22978723 1.2765957
-0.38064516 0.23225807 1.2903225
-0.37419355 0.23225807 1.2903225
-0.36774194 0.23225807 1.2903225
-0.36521739 0.23478261 1.3043479
-0.36263737 0.23736264 1.3186814
-0.35604396 0.23736264 1.3186814
-0.35333332 0.23999999 1.3333334
-0.34666666 0.23999999 1.3333334
-0.34382021 0.24269663 1.3483146
-0.33707866 0.24269663 1.3483146
-0.33409092 0.24545455 1.3636364
-0.32727271 0.24545455 1.3636364
-0.32045454 0.24545455 1.3636364
-0.31724137 0.24827586 1.3793104
-0.31034482 0.24827586 1.3793104
-0.30697674 0.2511628 1.3953488
-0.30000001 0.2511628 1.3953488
-0.29302326 0.2511628 1.3953488
-0.2860465 0.2511628 1.3953488
-0.27906978 0.2511628 1.3953488
-0.27209303 0.2511628 1.3953488
-0.26511627 0.2511628 1.3953488
-0.25813952 0.2511628 1.3953488
-0.24827586 0.24827586 1.3793104
-0.24137931 0.24827586 1.3793104
-0.23448277 0.24827586 1.3793104
-0.22758621 0.24827586 1.3793104
-0.22068965 0.24827586 1.3793104
-0.21136364 0.24545455 1.3636364
-0.20454545 0.24545455 1.3636364
-0.20232558 0.2511628 1.3953488
-0.19534884 0.2511628 1.3953488
-0.18837209 0.2511628 1.3953488
-0.18352941 0.25411764 1.4117647
-0.17647059 0.25411764 1.4117647
-0.16941176 0.25411764 1.4117647
-0.16428572 0.25714287 1.4285715
-0.15714286 0.25714287 1.4285715
-0.15180723 0.26024097 1.4457831
-0.14457831 0.26024097 1.4457831
-0.1373494 0.26024097 1.4457831
-0.13170731 0.26341462 1.4634147
-0.12439024 0.26341462 1.4634147
-0.11851852 0.26666668 1.4814814
-0.11111111 0.26666668 1.4814814
-0.1037037 0.26666668 1.4814814
-0.097499996 0.27000001 1.5
-0.091139242 0.27341771 1.5189873
-0.083544306 0.27341771 1.5189873
-0.075949363 0.27341771 1.5189873
-0.55135137 0.2 1.081081
-0.54594594 0.2 1.081081
-0.54054052 0.2 1.081081
-0.53513515 0.2 1.081081
-0.53454548 0.20181818 1.0909091
-0.53394496 0.20366973 1.1009175
-0.52844036 0.20366973 1.1009175
-0.52293581 0.20366973 1.1009175
-0.52222222 0.20555556 1.1111112
-0.52149534 0.20747663 1.1214954
-0.51588786 0.20747663 1.1214954
-0.51028037 0.20747663 1.1214954
-0.50467288 0.20747663 1.1214954
-0.50377357 0.20943396 1.1320754
-0.50285715 0.21142857 1.1428572
-0.49714285 0.21142857 1.1428572
-0.49615383 0.21346153 1.1538461
-0.49038461 0.21346153 1.1538461
-0.48461539 0.21346153 1.1538461
-0.48349515 0.21553399 1.1650486
-0.47766989 0.21553399 1.1650486
-0.47184467 0.21553399 1.1650486
-0.47524753 0.21980198 1.1881188
-0.46930692 0.21980198 1.1881188
-0.46336633 0.21980198 1.1881188
-0.45742574 0.21980198 1.1881188
-0.456 0.222 1.2
-0.44999999 0.222 1.2
-0.44848484 0.22424242 1.2121212
-0.44242424 0.22424242 1.2121212
-0.43636364 0.22424242 1.2121212
-0.43469387 0.22653061 1.2244898
-0.42857143 0.22653061 1.2244898
-0.42244899 0.22653061 1.2244898
-0.42061856 0.22886598 1.2371134
-0.414433 0.22886598 1.2371134
-0.41249999 0.23125 1.25
-0.40625 0.23125 1.25
-0.40000001 0.23125 1.25
-0.39789474 0.23368421 1.2631578
-0.39157894 0.23368421 1.2631578
-0.38526314 0.23368421 1.2631578
-0.38297874 0.23617022 1.2765957
-0.38064516 0.23870967 1.2903225
-0.37419355 0.23870967 1.2903225
-0.37173912 0.24130435 1.3043479
-0.36521739 0.24130435 1.3043479
-0.35869566 0.24130435 1.3043479
-0.35217392 0.24130435 1.3043479
-0.35333332 0.24666667 1.3333334
-0.34666666 0.24666667 1.3333334
-0.34 0.24666667 1.3333334
-0.33707866 0.2494382 1.3483146
-0.33033708 0.2494382 1.3483146
-0.32727271 0.25227273 1.3636364
-0.32045454 0.25227273 1.3636364
-0.31724137 0.2551724 1.3793104
-0.31034482 0.2551724 1.3793104
-0.30344829 0.2551724 1.3793104
-0.30000001 0.25813952 1.3953488
-0.29302326 0.25813952 1.3953488
-0.2860465 0.25813952 1.3953488
-0.27906978 0.25813952 1.3953488
-0.27209303 0.25813952 1.3953488
-0.26511627 0.25813952 1.3953488
-0.25813952 0.25813952 1.3953488
-0.24827586 0.2551724 1.3793104
-0.24137931 0.2551724 1.3793104
-0.23448277 0.2551724 1.3793104
-0.22758621 0.2551724 1.3793104
-0.22068965 0.2551724 1.3793104
-0.21136364 0.25227273 1.3636364
-0.20454545 0.25227273 1.3636364
-0.19772728 0.25227273 1.3636364
-0.19534884 0.25813952 1.3953488
-0.18837209 0.25813952 1.3953488
-0.18352941 0.26117647 1.4117647
