# .PCD v0.7 - Point Cloud Data file format
VERSION 0.7
FIELDS x y z
SIZE 4 4 4
TYPE F F F
COUNT 1 1 1
WIDTH 1452
HEIGHT 1
VIEWPOINT 0 0 0 1 0 0 0
POINTS 1452
DATA ascii
-0.034883723 -0.40465117 1.3953488
-0.027906977 -0.40465117 1.3953488
-0.020930232 -0.40465117 1.3953488
-0.014634146 -0.42439026 1.4634147
-0.0073170732 -0.42439026 1.4634147
0 -0.42439026 1.4634147
0.0073170732 -0.42439026 1.4634147
0.014634146 -0.42439026 1.4634147
0.022222223 -0.42962962 1.4814814
0.029268293 -0.42439026 1.4634147
0.037037037 -0.42962962 1.4814814
0.044444446 -0.42962962 1.4814814
0.05185185 -0.42962962 1.4814814
0.059259258 -0.42962962 1.4814814
0.06666667 -0.42962962 1.4814814
0.074074075 -0.42962962 1.4814814
0.080487803 -0.42439026 1.4634147
0.087804876 -0.42439026 1.4634147
0.09512195 -0.42439026 1.4634147
0.10243902 -0.42439026 1.4634147
0.1097561 -0.42439026 1.4634147
0.11566265 -0.4192771 1.4457831
0.12289157 -0.4192771 1.4457831
0.12857144 -0.41428572 1.4285715
0.13571429 -0.41428572 1.4285715
0.13953489 -0.40465117 1.3953488
0.14651163 -0.40465117 1.3953488
0.15348837 -0.40465117 1.3953488
0.16046512 -0.40465117 1.3953488
0.16744186 -0.40465117 1.3953488
0.1724138 -0.40000001 1.3793104
0.17931035 -0.40000001 1.3793104
0.18620689 -0.40000001 1.3793104
0.20224719 -0.39101124 1.3483146
0.19175258 -0.35876289 1.2371134
0.19793814 -0.35876289 1.2371134
0.20412371 -0.35876289 1.2371134
0.21030928 -0.35876289 1.2371134
0.21649484 -0.35876289 1.2371134
0.21818182 -0.35151514 1.2121212
0.22424242 -0.35151514 1.2121212
0.23030303 -0.35151514 1.2121212
0.23636363 -0.35151514 1.2121212
0.24242425 -0.35151514 1.2121212
0.24848485 -0.35151514 1.2121212
0.25454545 -0.35151514 1.2121212
0.26326531 -0.35510203 1.2244898
0.26938775 -0.35510203 1.2244898
0.27551019 -0.35510203 1.2244898
0.28163266 -0.35510203 1.2244898
-0.2025 -0.42750001 1.5
-0.19259259 -0.42222223 1.4814814
-0.18518518 -0.42222223 1.4814814
-0.17777778 -0.42222223 1.4814814
-0.16626506 -0.41204819 1.4457831
-0.15903614 -0.41204819 1.4457831
-0.15180723 -0.41204819 1.4457831
-0.14457831 -0.41204819 1.4457831
-0.14805195 -0.44415584 1.5584415
-0.14025974 -0.44415584 1.5584415
-0.13246754 -0.44415584 1.5584415
-0.11428571 -0.40714285 1.4285715
-0.10714286 -0.40714285 1.4285715
-0.1 -0.40714285 1.4285715
-0.091764703 -0.40235293 1.4117647
-0.08372093 -0.39767441 1.3953488
-0.07764706 -0.40235293 1.4117647
-0.070588239 -0.40235293 1.4117647
-0.062790699 -0.39767441 1.3953488
-0.055172414 -0.39310345 1.3793104
-0.048275862 -0.39310345 1.3793104
-0.04137931 -0.39310345 1.3793104
-0.034883723 -0.39767441 1.3953488
-0.027906977 -0.39767441 1.3953488
-0.022222223 -0.42222223 1.4814814
-0.014634146 -0.41707316 1.4634147
-0.0073170732 -0.41707316 1.4634147
0 -0.41707316 1.4634147
0.0073170732 -0.41707316 1.4634147
0.014814815 -0.42222223 1.4814814
0.022222223 -0.42222223 1.4814814
0.029629629 -0.42222223 1.4814814
0.037037037 -0.42222223 1.4814814
0.044444446 -0.42222223 1.4814814
0.05185185 -0.42222223 1.4814814
0.059259258 -0.42222223 1.4814814
0.06666667 -0.42222223 1.4814814
0.074074075 -0.42222223 1.4814814
0.081481479 -0.42222223 1.4814814
0.087804876 -0.41707316 1.4634147
0.09512195 -0.41707316 1.4634147
0.10243902 -0.41707316 1.4634147
0.1097561 -0.41707316 1.4634147
0.11566265 -0.41204819 1.4457831
0.12289157 -0.41204819 1.4457831
0.13012049 -0.41204819 1.4457831
0.13571429 -0.40714285 1.4285715
0.14285715 -0.40714285 1.4285715
0.14651163 -0.39767441 1.3953488
0.15348837 -0.39767441 1.3953488
0.16046512 -0.39767441 1.3953488
0.16744186 -0.39767441 1.3953488
0.1724138 -0.39310345 1.3793104
0.17931035 -0.39310345 1.3793104
0.18620689 -0.39310345 1.3793104
0.18876405 -0.38426965 1.3483146
0.19550562 -0.38426965 1.3483146
0.20224719 -0.38426965 1.3483146
0.19175258 -0.35257733 1.2371134
0.19793814 -0.35257733 1.2371134
0.20412371 -0.35257733 1.2371134
0.21030928 -0.35257733 1.2371134
0.21212122 -0.34545454 1.2121212
0.21818182 -0.34545454 1.2121212
0.22424242 -0.34545454 1.2121212
0.23030303 -0.34545454 1.2121212
0.23636363 -0.34545454 1.2121212
0.24242425 -0.34545454 1.2121212
0.24848485 -0.34545454 1.2121212
0.25454545 -0.34545454 1.2121212
0.26326531 -0.34897959 1.2244898
0.26938775 -0.34897959 1.2244898
0.27551019 -0.34897959 1.2244898
0.28163266 -0.34897959 1.2244898
-0.2175 -0.41999999 1.5
-0.20999999 -0.41999999 1.5
-0.2025 -0.41999999 1.5
-0.18571429 -0.40000001 1.4285715
-0.17857143 -0.40000001 1.4285715
-0.17142858 -0.40000001 1.4285715
-0.16428572 -0.40000001 1.4285715
-0.15903614 -0.40481928 1.4457831
-0.15180723 -0.40481928 1.4457831
-0.15584415 -0.43636364 1.5584415
-0.14805195 -0.43636364 1.5584415
-0.14025974 -0.43636364 1.5584415
-0.13246754 -0.43636364 1.5584415
-0.11428571 -0.40000001 1.4285715
-0.10714286 -0.40000001 1.4285715
-0.098823532 -0.39529413 1.4117647
-0.091764703 -0.39529413 1.4117647
-0.08372093 -0.39069769 1.3953488
-0.076744184 -0.39069769 1.3953488
-0.069767445 -0.39069769 1.3953488
-0.062790699 -0.39069769 1.3953488
-0.055172414 -0.3862069 1.3793104
-0.048275862 -0.3862069 1.3793104
-0.04137931 -0.3862069 1.3793104
-0.034482758 -0.3862069 1.3793104
-0.029629629 -0.4148148 1.4814814
-0.022222223 -0.4148148 1.4814814
-0.014634146 -0.40975609 1.4634147
-0.0073170732 -0.40975609 1.4634147
0 -0.40975609 1.4634147
0.0073170732 -0.40975609 1.4634147
0.014814815 -0.4148148 1.4814814
0.022222223 -0.4148148 1.4814814
0.029629629 -0.4148148 1.4814814
0.037037037 -0.4148148 1.4814814
0.044444446 -0.4148148 1.4814814
0.05185185 -0.4148148 1.4814814
0.059259258 -0.4148148 1.4814814
0.06666667 -0.4148148 1.4814814
0.074074075 -0.4148148 1.4814814
0.081481479 -0.4148148 1.4814814
0.087804876 -0.40975609 1.4634147
0.09512195 -0.40975609 1.4634147
0.10243902 -0.40975609 1.4634147
0.1097561 -0.40975609 1.4634147
0.11707317 -0.40975609 1.4634147
0.12289157 -0.40481928 1.4457831
0.13012049 -0.40481928 1.4457831
0.13571429 -0.40000001 1.4285715
0.14285715 -0.40000001 1.4285715
0.15000001 -0.40000001 1.4285715
0.15529412 -0.39529413 1.4117647
0.16046512 -0.39069769 1.3953488
0.16744186 -0.39069769 1.3953488
0.1724138 -0.3862069 1.3793104
0.17931035 -0.3862069 1.3793104
0.18620689 -0.3862069 1.3793104
0.18876405 -0.3775281 1.3483146
0.19550562 -0.3775281 1.3483146
0.20224719 -0.3775281 1.3483146
0.20898877 -0.3775281 1.3483146
0.19793814 -0.34639177 1.2371134
0.20412371 -0.34639177 1.2371134
0.21030928 -0.34639177 1.2371134
0.21212122 -0.33939394 1.2121212
0.21818182 -0.33939394 1.2121212
0.22424242 -0.33939394 1.2121212
0.23030303 -0.33939394 1.2121212
0.23636363 -0.33939394 1.2121212
0.24242425 -0.33939394 1.2121212
0.24848485 -0.33939394 1.2121212
0.25454545 -0.33939394 1.2121212
0.26326531 -0.34285715 1.2244898
0.26938775 -0.34285715 1.2244898
0.27551019 -0.34285715 1.2244898
0.28163266 -0.34285715 1.2244898
0.2877551 -0.34285715 1.2244898
-0.22325581 -0.38372093 1.3953488
-0.2175 -0.41249999 1.5
-0.20999999 -0.41249999 1.5
-0.2025 -0.41249999 1.5
-0.19499999 -0.41249999 1.5
-0.17857143 -0.39285713 1.4285715
-0.17142858 -0.39285713 1.4285715
-0.16428572 -0.39285713 1.4285715
-0.16923077 -0.42307693 1.5384616
-0.16153847 -0.42307693 1.5384616
-0.15584415 -0.42857143 1.5584415
-0.14805195 -0.42857143 1.5584415
-0.14025974 -0.42857143 1.5584415
-0.13246754 -0.42857143 1.5584415
-0.12467533 -0.42857143 1.5584415
-0.10588235 -0.3882353 1.4117647
-0.096551724 -0.37931034 1.3793104
-0.089655176 -0.37931034 1.3793104
-0.08275862 -0.37931034 1.3793104
-0.075862072 -0.37931034 1.3793104
-0.068965517 -0.37931034 1.3793104
-0.062790699 -0.38372093 1.3953488
-0.055172414 -0.37931034 1.3793104
-0.047727272 -0.375 1.3636364
-0.040909089 -0.375 1.3636364
-0.03409091 -0.375 1.3636364
-0.027586207 -0.37931034 1.3793104
-0.021951219 -0.40243903 1.4634147
-0.014634146 -0.40243903 1.4634147
-0.0073170732 -0.40243903 1.4634147
0 -0.40243903 1.4634147
0.0073170732 -0.40243903 1.4634147
0.014814815 -0.4074074 1.4814814
0.020454545 -0.375 1.3636364
0.027272727 -0.375 1.3636364
0.037037037 -0.4074074 1.4814814
0.044444446 -0.4074074 1.4814814
0.05185185 -0.4074074 1.4814814
0.059259258 -0.4074074 1.4814814
0.06666667 -0.4074074 1.4814814
0.074074075 -0.4074074 1.4814814
0.075000003 -0.375 1.3636364
0.081818178 -0.375 1.3636364
0.088636361 -0.375 1.3636364
0.10243902 -0.40243903 1.4634147
0.1097561 -0.40243903 1.4634147
0.11707317 -0.40243903 1.4634147
0.11333334 -0.36666667 1.3333334
0.12 -0.36666667 1.3333334
0.13571429 -0.39285713 1.4285715
0.14285715 -0.39285713 1.4285715
0.15000001 -0.39285713 1.4285715
0.15529412 -0.3882353 1.4117647
0.16046512 -0.38372093 1.3953488
0.16744186 -0.38372093 1.3953488
0.1744186 -0.38372093 1.3953488
0.17931035 -0.37931034 1.3793104
0.18620689 -0.37931034 1.3793104
0.18876405 -0.37078652 1.3483146
0.19550562 -0.37078652 1.3483146
0.20224719 -0.37078652 1.3483146
0.20898877 -0.37078652 1.3483146
0.19793814 -0.34020618 1.2371134
0.20204082 -0.33673468 1.2244898
0.20816326 -0.33673468 1.2244898
0.21212122 -0.33333334 1.2121212
0.21818182 -0.33333334 1.2121212
0.222 -0.33000001 1.2
0.228 -0.33000001 1.2
0.23636363 -0.33333334 1.2121212
0.24242425 -0.33333334 1.2121212
0.24848485 -0.33333334 1.2121212
0.25454545 -0.33333334 1.2121212
0.25799999 -0.33000001 1.2
0.26938775 -0.33673468 1.2244898
0.27551019 -0.33673468 1.2244898
0.28163266 -0.33673468 1.2244898
-0.23720931 -0.37674418 1.3953488
-0.23023255 -0.37674418 1.3953488
-0.22325581 -0.37674418 1.3953488
-0.21627907 -0.37674418 1.3953488
-0.20930232 -0.37674418 1.3953488
-0.2175 -0.405 1.5
-0.20999999 -0.405 1.5
-0.2025 -0.405 1.5
-0.19499999 -0.405 1.5
-0.18987341 -0.4101266 1.5189873
-0.18227848 -0.4101266 1.5189873
-0.17692308 -0.41538462 1.5384616
-0.16923077 -0.41538462 1.5384616
-0.16153847 -0.41538462 1.5384616
-0.15584415 -0.42077923 1.5584415
-0.14805195 -0.42077923 1.5584415
-0.14025974 -0.42077923 1.5584415
-0.13246754 -0.42077923 1.5584415
-0.096551724 -0.37241378 1.3793104
-0.089655176 -0.37241378 1.3793104
-0.08275862 -0.37241378 1.3793104
-0.075862072 -0.37241378 1.3793104
-0.06666667 -0.36000001 1.3333334
-0.059999999 -0.36000001 1.3333334
-0.053932585 -0.36404493 1.3483146
-0.047727272 -0.36818182 1.3636364
-0.040909089 -0.36818182 1.3636364
-0.034482758 -0.37241378 1.3793104
-0.027586207 -0.37241378 1.3793104
-0.020689655 -0.37241378 1.3793104
-0.013636364 -0.36818182 1.3636364
-0.0073170732 -0.39512196 1.4634147
0 -0.39512196 1.4634147
0.0067415731 -0.36404493 1.3483146
0.013636364 -0.36818182 1.3636364
0.020454545 -0.36818182 1.3636364
0.027272727 -0.36818182 1.3636364
0.03409091 -0.36818182 1.3636364
0.040449437 -0.36404493 1.3483146
0.047191013 -0.36404493 1.3483146
0.053932585 -0.36404493 1.3483146
0.060674157 -0.36404493 1.3483146
0.067415729 -0.36404493 1.3483146
0.074157305 -0.36404493 1.3483146
0.080898874 -0.36404493 1.3483146
0.087640449 -0.36404493 1.3483146
0.092307694 -0.35604396 1.3186814
0.1097561 -0.39512196 1.4634147
0.10666667 -0.36000001 1.3333334
0.11333334 -0.36000001 1.3333334
0.12 -0.36000001 1.3333334
0.12666667 -0.36000001 1.3333334
0.13043478 -0.35217392 1.3043479
0.13695653 -0.35217392 1.3043479
0.14347826 -0.35217392 1.3043479
0.16046512 -0.37674418 1.3953488
0.16744186 -0.37674418 1.3953488
0.1744186 -0.37674418 1.3953488
0.18139535 -0.37674418 1.3953488
0.18837209 -0.37674418 1.3953488
0.18876405 -0.36404493 1.3483146
0.19550562 -0.36404493 1.3483146
0.20224719 -0.36404493 1.3483146
0.20898877 -0.36404493 1.3483146
0.19793814 -0.33402061 1.2371134
0.20204082 -0.33061224 1.2244898
0.20816326 -0.33061224 1.2244898
0.21212122 -0.32727271 1.2121212
0.21386139 -0.32079208 1.1881188
0.222 -0.324 1.2
0.228 -0.324 1.2
0.23168316 -0.32079208 1.1881188
0.23762377 -0.32079208 1.1881188
0.24356435 -0.32079208 1.1881188
0.252 -0.324 1.2
0.25799999 -0.324 1.2
0.264 -0.324 1.2
0.27000001 -0.324 1.2
0.28163266 -0.33061224 1.2244898
-0.23720931 -0.36976743 1.3953488
-0.23023255 -0.36976743 1.3953488
-0.22325581 -0.36976743 1.3953488
-0.21627907 -0.36976743 1.3953488
-0.20930232 -0.36976743 1.3953488
-0.2175 -0.39750001 1.5
-0.20999999 -0.39750001 1.5
-0.2025 -0.39750001 1.5
-0.19746836 -0.40253165 1.5189873
-0.18987341 -0.40253165 1.5189873
-0.18227848 -0.40253165 1.5189873
-0.17692308 -0.40769231 1.5384616
-0.16923077 -0.40769231 1.5384616
-0.16153847 -0.40769231 1.5384616
-0.15584415 -0.41298702 1.5584415
-0.14805195 -0.41298702 1.5584415
-0.14025974 -0.41298702 1.5584415
-0.13246754 -0.41298702 1.5584415
-0.12467533 -0.41298702 1.5584415
-0.096551724 -0.36551723 1.3793104
-0.089655176 -0.36551723 1.3793104
-0.08275862 -0.36551723 1.3793104
-0.07333333 -0.35333332 1.3333334
-0.06666667 -0.35333332 1.3333334
-0.059999999 -0.35333332 1.3333334
-0.053932585 -0.35730338 1.3483146
-0.047191013 -0.35730338 1.3483146
-0.040909089 -0.36136365 1.3636364
-0.03409091 -0.36136365 1.3636364
-0.027586207 -0.36551723 1.3793104
-0.020454545 -0.36136365 1.3636364
-0.013636364 -0.36136365 1.3636364
-0.0068181818 -0.36136365 1.3636364
0 -0.35730338 1.3483146
0.0067415731 -0.35730338 1.3483146
0.013483146 -0.35730338 1.3483146
0.02 -0.35333332 1.3333334
0.027272727 -0.36136365 1.3636364
0.03409091 -0.36136365 1.3636364
0.040449437 -0.35730338 1.3483146
0.047191013 -0.35730338 1.3483146
0.053932585 -0.35730338 1.3483146
0.060674157 -0.35730338 1.3483146
0.067415729 -0.35730338 1.3483146
0.07333333 -0.35333332 1.3333334
0.079999998 -0.35333332 1.3333334
0.085714288 -0.34945056 1.3186814
0.092307694 -0.34945056 1.3186814
0.097826086 -0.34565216 1.3043479
0.10434783 -0.34565216 1.3043479
0.11333334 -0.35333332 1.3333334
0.12 -0.35333332 1.3333334
0.12391304 -0.34565216 1.3043479
0.13043478 -0.34565216 1.3043479
0.13695653 -0.34565216 1.3043479
0.14347826 -0.34565216 1.3043479
0.14680851 -0.33829787 1.2765957
0.16744186 -0.36976743 1.3953488
0.1744186 -0.36976743 1.3953488
0.18139535 -0.36976743 1.3953488
0.18876405 -0.35730338 1.3483146
0.19550562 -0.35730338 1.3483146
0.20224719 -0.35730338 1.3483146
0.20898877 -0.35730338 1.3483146
0.19793814 -0.32783505 1.2371134
0.20204082 -0.3244898 1.2244898
0.2019802 -0.31485149 1.1881188
0.20792079 -0.31485149 1.1881188
0.21386139 -0.31485149 1.1881188
0.21980198 -0.31485149 1.1881188
0.22135922 -0.30873787 1.1650486
0.22718446 -0.30873787 1.1650486
0.23762377 -0.31485149 1.1881188
0.24117647 -0.31176472 1.1764706
0.24705882 -0.31176472 1.1764706
0.25799999 -0.31799999 1.2
0.26138613 -0.31485149 1.1881188
0.26732674 -0.31485149 1.1881188
0.27326733 -0.31485149 1.1881188
-0.27586207 -0.3586207 1.3793104
-0.26896551 -0.3586207 1.3793104
-0.25227273 -0.35454544 1.3636364
-0.24418604 -0.3627907 1.3953488
-0.23720931 -0.3627907 1.3953488
-0.23023255 -0.3627907 1.3953488
-0.22325581 -0.3627907 1.3953488
-0.21627907 -0.3627907 1.3953488
-0.20689656 -0.3586207 1.3793104
-0.2175 -0.38999999 1.5
-0.20999999 -0.38999999 1.5
-0.2025 -0.38999999 1.5
-0.19746836 -0.39493671 1.5189873
-0.18987341 -0.39493671 1.5189873
-0.18227848 -0.39493671 1.5189873
-0.17692308 -0.40000001 1.5384616
-0.16923077 -0.40000001 1.5384616
-0.16153847 -0.40000001 1.5384616
-0.15584415 -0.40519482 1.5584415
-0.14805195 -0.40519482 1.5584415
-0.14025974 -0.40519482 1.5584415
-0.11086956 -0.33913043 1.3043479
-0.10434783 -0.33913043 1.3043479
-0.097826086 -0.33913043 1.3043479
-0.079999998 -0.34666666 1.3333334
-0.07333333 -0.34666666 1.3333334
-0.06666667 -0.34666666 1.3333334
-0.059999999 -0.34666666 1.3333334
-0.053932585 -0.3505618 1.3483146
-0.047191013 -0.3505618 1.3483146
-0.040449437 -0.3505618 1.3483146
-0.03409091 -0.35454544 1.3636364
-0.027272727 -0.35454544 1.3636364
-0.020454545 -0.35454544 1.3636364
-0.013636364 -0.35454544 1.3636364
-0.0067415731 -0.3505618 1.3483146
0 -0.3505618 1.3483146
0.0067415731 -0.3505618 1.3483146
0.013483146 -0.3505618 1.3483146
0.02 -0.34666666 1.3333334
0.026666667 -0.34666666 1.3333334
0.033333335 -0.34666666 1.3333334
0.040449437 -0.3505618 1.3483146
0.047191013 -0.3505618 1.3483146
0.053932585 -0.3505618 1.3483146
0.060674157 -0.3505618 1.3483146
0.065217391 -0.33913043 1.3043479
0.07173913 -0.33913043 1.3043479
0.079999998 -0.34666666 1.3333334
0.085714288 -0.34285715 1.3186814
0.091304347 -0.33913043 1.3043479
0.097826086 -0.33913043 1.3043479
0.10434783 -0.33913043 1.3043479
0.11086956 -0.33913043 1.3043479
0.1173913 -0.33913043 1.3043479
0.12391304 -0.33913043 1.3043479
0.13043478 -0.33913043 1.3043479
0.13695653 -0.33913043 1.3043479
0.14193548 -0.33548388 1.2903225
0.14680851 -0.3319149 1.2765957
0.15319149 -0.3319149 1.2765957
0.15957446 -0.3319149 1.2765957
0.18139535 -0.3627907 1.3953488
0.20224719 -0.3505618 1.3483146
0.19793814 -0.32164949 1.2371134
0.19223301 -0.30291262 1.1650486
0.19805825 -0.30291262 1.1650486
0.2038835 -0.30291262 1.1650486
0.21386139 -0.30891088 1.1881188
0.21553399 -0.30291262 1.1650486
0.22135922 -0.30291262 1.1650486
0.22718446 -0.30291262 1.1650486
0.23300971 -0.30291262 1.1650486
0.24117647 -0.30588236 1.1764706
0.24705882 -0.30588236 1.1764706
0.25294119 -0.30588236 1.1764706
0.26138613 -0.30891088 1.1881188
0.26732674 -0.30891088 1.1881188
0.27326733 -0.30891088 1.1881188
0.27920792 -0.30891088 1.1881188
-0.28965518 -0.35172415 1.3793104
-0.28275862 -0.35172415 1.3793104
-0.27586207 -0.35172415 1.3793104
-0.26896551 -0.35172415 1.3793104
-0.26206896 -0.35172415 1.3793104
-0.25227273 -0.34772727 1.3636364
-0.24545455 -0.34772727 1.3636364
-0.23863636 -0.34772727 1.3636364
-0.23720931 -0.35581395 1.3953488
-0.23023255 -0.35581395 1.3953488
-0.22325581 -0.35581395 1.3953488
-0.2137931 -0.35172415 1.3793104
-0.20689656 -0.35172415 1.3793104
-0.2 -0.35172415 1.3793104
-0.20487805 -0.37317073 1.4634147
-0.19756098 -0.37317073 1.4634147
-0.1902439 -0.37317073 1.4634147
-0.18987341 -0.38734177 1.5189873
-0.18227848 -0.38734177 1.5189873
-0.17468354 -0.38734177 1.5189873
-0.16923077 -0.3923077 1.5384616
-0.16153847 -0.3923077 1.5384616
-0.15584415 -0.39740258 1.5584415
-0.14615385 -0.3923077 1.5384616
-0.13846155 -0.3923077 1.5384616
-0.11086956 -0.3326087 1.3043479
-0.10434783 -0.3326087 1.3043479
-0.11538462 -0.3923077 1.5384616
-0.10769231 -0.3923077 1.5384616
-0.1 -0.3923077 1.5384616
-0.079999998 -0.34 1.3333334
-0.07333333 -0.34 1.3333334
-0.06666667 -0.34 1.3333334
-0.059999999 -0.34 1.3333334
-0.053333335 -0.34 1.3333334
-0.046666667 -0.34 1.3333334
-0.040449437 -0.34382021 1.3483146
-0.033707865 -0.34382021 1.3483146
-0.026666667 -0.34 1.3333334
-0.02 -0.34 1.3333334
-0.013186813 -0.33626375 1.3186814
-0.0067415731 -0.34382021 1.3483146
0 -0.34382021 1.3483146
0.0067415731 -0.34382021 1.3483146
0.013186813 -0.33626375 1.3186814
0.02 -0.34 1.3333334
0.026666667 -0.34 1.3333334
0.032608695 -0.3326087 1.3043479
0.039130434 -0.3326087 1.3043479
0.045652173 -0.3326087 1.3043479
0.051612902 -0.32903227 1.2903225
0.058064517 -0.32903227 1.2903225
0.065217391 -0.3326087 1.3043479
0.07173913 -0.3326087 1.3043479
0.078260869 -0.3326087 1.3043479
0.084782608 -0.3326087 1.3043479
0.091304347 -0.3326087 1.3043479
0.097826086 -0.3326087 1.3043479
0.10434783 -0.3326087 1.3043479
0.11086956 -0.3326087 1.3043479
0.1173913 -0.3326087 1.3043479
0.12391304 -0.3326087 1.3043479
0.13043478 -0.3326087 1.3043479
0.13548388 -0.32903227 1.2903225
0.14193548 -0.32903227 1.2903225
0.14680851 -0.32553193 1.2765957
0.15319149 -0.32553193 1.2765957
0.15957446 -0.32553193 1.2765957
0.18571429 -0.36428571 1.4285715
0.19285715 -0.36428571 1.4285715
0.2 -0.36428571 1.4285715
0.18640776 -0.29708737 1.1650486
0.19223301 -0.29708737 1.1650486
0.19805825 -0.29708737 1.1650486
0.2038835 -0.29708737 1.1650486
0.20970874 -0.29708737 1.1650486
0.21553399 -0.29708737 1.1650486
0.21923077 -0.29423076 1.1538461
0.22718446 -0.29708737 1.1650486
0.23300971 -0.29708737 1.1650486
0.24117647 -0.30000001 1.1764706
0.24705882 -0.30000001 1.1764706
0.25294119 -0.30000001 1.1764706
0.26138613 -0.30297029 1.1881188
0.26732674 -0.30297029 1.1881188
0.27326733 -0.30297029 1.1881188
-0.29318181 -0.34090909 1.3636364
-0.28965518 -0.34482759 1.3793104
-0.28275862 -0.34482759 1.3793104
-0.27586207 -0.34482759 1.3793104
-0.26896551 -0.34482759 1.3793104
-0.26206896 -0.34482759 1.3793104
-0.25227273 -0.34090909 1.3636364
-0.24545455 -0.34090909 1.3636364
-0.23863636 -0.34090909 1.3636364
-0.23720931 -0.3488372 1.3953488
-0.23023255 -0.3488372 1.3953488
-0.22068965 -0.34482759 1.3793104
-0.2137931 -0.34482759 1.3793104
-0.20224719 -0.33707866 1.3483146
-0.19550562 -0.33707866 1.3483146
-0.20487805 -0.36585367 1.4634147
-0.19756098 -0.36585367 1.4634147
-0.19259259 -0.37037036 1.4814814
-0.18987341 -0.37974682 1.5189873
-0.18227848 -0.37974682 1.5189873
-0.17468354 -0.37974682 1.5189873
-0.14347826 -0.32608697 1.3043479
-0.13695653 -0.32608697 1.3043479
-0.15384616 -0.38461539 1.5384616
-0.14615385 -0.38461539 1.5384616
-0.1173913 -0.32608697 1.3043479
-0.11086956 -0.32608697 1.3043479
-0.10434783 -0.32608697 1.3043479
-0.11538462 -0.38461539 1.5384616
-0.10769231 -0.38461539 1.5384616
-0.1 -0.38461539 1.5384616
-0.06666667 -0.33333334 1.3333334
-0.059999999 -0.33333334 1.3333334
-0.053333335 -0.33333334 1.3333334
-0.046666667 -0.33333334 1.3333334
-0.040449437 -0.33707866 1.3483146
-0.033333335 -0.33333334 1.3333334
-0.026666667 -0.33333334 1.3333334
-0.02 -0.33333334 1.3333334
-0.013186813 -0.32967034 1.3186814
-0.0065934067 -0.32967034 1.3186814
0 -0.32967034 1.3186814
0.0065934067 -0.32967034 1.3186814
0.013186813 -0.32967034 1.3186814
0.01978022 -0.32967034 1.3186814
0.026086956 -0.32608697 1.3043479
0.032608695 -0.32608697 1.3043479
0.039130434 -0.32608697 1.3043479
0.045652173 -0.32608697 1.3043479
0.051612902 -0.32258064 1.2903225
0.058064517 -0.32258064 1.2903225
0.064516127 -0.32258064 1.2903225
0.07173913 -0.32608697 1.3043479
0.078260869 -0.32608697 1.3043479
0.082978725 -0.31914893 1.2765957
0.089361705 -0.31914893 1.2765957
0.095744684 -0.31914893 1.2765957
0.10212766 -0.31914893 1.2765957
0.10851064 -0.31914893 1.2765957
0.11489362 -0.31914893 1.2765957
0.12391304 -0.32608697 1.3043479
0.12903225 -0.32258064 1.2903225
0.13548388 -0.32258064 1.2903225
0.14193548 -0.32258064 1.2903225
0.14680851 -0.31914893 1.2765957
0.15319149 -0.31914893 1.2765957
0.17857143 -0.35714287 1.4285715
0.18571429 -0.35714287 1.4285715
0.19285715 -0.35714287 1.4285715
0.2 -0.35714287 1.4285715
0.19223301 -0.29126215 1.1650486
0.19805825 -0.29126215 1.1650486
0.2038835 -0.29126215 1.1650486
0.20970874 -0.29126215 1.1650486
0.21553399 -0.29126215 1.1650486
0.21923077 -0.28846154 1.1538461
0.22075471 -0.28301886 1.1320754
0.23076923 -0.28846154 1.1538461
0.23653845 -0.28846154 1.1538461
0.2446602 -0.29126215 1.1650486
0.25048545 -0.29126215 1.1650486
0.25882354 -0.29411766 1.1764706
0.2647059 -0.29411766 1.1764706
0.27058825 -0.29411766 1.1764706
0.27115384 -0.28846154 1.1538461
0.27692309 -0.28846154 1.1538461
-0.30681819 -0.33409092 1.3636364
-0.30000001 -0.33409092 1.3636364
-0.29318181 -0.33409092 1.3636364
-0.28965518 -0.33793104 1.3793104
-0.28275862 -0.33793104 1.3793104
-0.27586207 -0.33793104 1.3793104
-0.26896551 -0.33793104 1.3793104
-0.26206896 -0.33793104 1.3793104
-0.25227273 -0.33409092 1.3636364
-0.24545455 -0.33409092 1.3636364
-0.23595506 -0.33033708 1.3483146
-0.22921348 -0.33033708 1.3483146
-0.22247191 -0.33033708 1.3483146
-0.21573034 -0.33033708 1.3483146
-0.20898877 -0.33033708 1.3483146
-0.20224719 -0.33033708 1.3483146
-0.19550562 -0.33033708 1.3483146
-0.18876405 -0.33033708 1.3483146
-0.2 -0.36296296 1.4814814
-0.19259259 -0.36296296 1.4814814
-0.16304348 -0.31956521 1.3043479
-0.15652174 -0.31956521 1.3043479
-0.15000001 -0.31956521 1.3043479
-0.14347826 -0.31956521 1.3043479
-0.13695653 -0.31956521 1.3043479
-0.13043478 -0.31956521 1.3043479
-0.14615385 -0.37692308 1.5384616
-0.1173913 -0.31956521 1.3043479
-0.11086956 -0.31956521 1.3043479
-0.12307692 -0.37692308 1.5384616
-0.11538462 -0.37692308 1.5384616
-0.10769231 -0.37692308 1.5384616
-0.1 -0.37692308 1.5384616
-0.092307694 -0.37692308 1.5384616
-0.065217391 -0.31956521 1.3043479
-0.058695652 -0.31956521 1.3043479
-0.052173913 -0.31956521 1.3043479
-0.046666667 -0.32666665 1.3333334
-0.039999999 -0.32666665 1.3333334
-0.033333335 -0.32666665 1.3333334
-0.026666667 -0.32666665 1.3333334
-0.02 -0.32666665 1.3333334
-0.013186813 -0.32307693 1.3186814
-0.0065217391 -0.31956521 1.3043479
0 -0.31956521 1.3043479
0.0065934067 -0.32307693 1.3186814
0.013043478 -0.31956521 1.3043479
0.019565217 -0.31956521 1.3043479
0.025806451 -0.31612903 1.2903225
0.032608695 -0.31956521 1.3043479
0.038709678 -0.31612903 1.2903225
0.045161292 -0.31612903 1.2903225
0.051612902 -0.31612903 1.2903225
0.058064517 -0.31612903 1.2903225
0.063829787 -0.31276596 1.2765957
0.070212767 -0.31276596 1.2765957
0.076595746 -0.31276596 1.2765957
0.082978725 -0.31276596 1.2765957
0.089361705 -0.31276596 1.2765957
0.095744684 -0.31276596 1.2765957
0.10212766 -0.31276596 1.2765957
0.10851064 -0.31276596 1.2765957
0.13170731 -0.35853657 1.4634147
0.13902439 -0.35853657 1.4634147
0.14193548 -0.31612903 1.2903225
0.16626506 -0.35421687 1.4457831
0.17349398 -0.35421687 1.4457831
0.17857143 -0.34999999 1.4285715
0.18571429 -0.34999999 1.4285715
0.19285715 -0.34999999 1.4285715
0.2 -0.34999999 1.4285715
0.20714286 -0.34999999 1.4285715
0.18285714 -0.28 1.1428572
0.18857142 -0.28 1.1428572
0.19428572 -0.28 1.1428572
0.2 -0.28 1.1428572
0.20571429 -0.28 1.1428572
0.21142857 -0.28 1.1428572
0.21509434 -0.2773585 1.1320754
0.22075471 -0.2773585 1.1320754
0.2264151 -0.2773585 1.1320754
0.23653845 -0.28269231 1.1538461
0.2446602 -0.2854369 1.1650486
0.25048545 -0.2854369 1.1650486
0.25882354 -0.28823531 1.1764706
0.2647059 -0.28823531 1.1764706
0.26538461 -0.28269231 1.1538461
0.27115384 -0.28269231 1.1538461
0.27692309 -0.28269231 1.1538461
-0.31011236 -0.32359549 1.3483146
-0.30681819 -0.32727271 1.3636364
-0.30000001 -0.32727271 1.3636364
-0.29318181 -0.32727271 1.3636364
-0.28636363 -0.32727271 1.3636364
-0.28275862 -0.33103448 1.3793104
-0.27586207 -0.33103448 1.3793104
-0.26896551 -0.33103448 1.3793104
-0.2590909 -0.32727271 1.3636364
-0.25227273 -0.32727271 1.3636364
-0.24269663 -0.32359549 1.3483146
-0.23595506 -0.32359549 1.3483146
-0.22921348 -0.32359549 1.3483146
-0.2152174 -0.31304348 1.3043479
-0.21573034 -0.32359549 1.3483146
-0.20898877 -0.32359549 1.3483146
-0.20224719 -0.32359549 1.3483146
-0.18913044 -0.31304348 1.3043479
-0.18260869 -0.31304348 1.3043479
-0.17419355 -0.30967742 1.2903225
-0.16956522 -0.31304348 1.3043479
-0.16304348 -0.31304348 1.3043479
-0.15652174 -0.31304348 1.3043479
-0.15000001 -0.31304348 1.3043479
-0.14193548 -0.30967742 1.2903225
-0.13695653 -0.31304348 1.3043479
-0.15000001 -0.36000001 1.5
-0.1425 -0.36000001 1.5
-0.13670886 -0.36455697 1.5189873
-0.12911393 -0.36455697 1.5189873
-0.12151898 -0.36455697 1.5189873
-0.11538462 -0.36923078 1.5384616
-0.10769231 -0.36923078 1.5384616
-0.1 -0.36923078 1.5384616
-0.065217391 -0.31304348 1.3043479
-0.058695652 -0.31304348 1.3043479
-0.052173913 -0.31304348 1.3043479
-0.045652173 -0.31304348 1.3043479
-0.039999999 -0.31999999 1.3333334
-0.033333335 -0.31999999 1.3333334
-0.026666667 -0.31999999 1.3333334
-0.02 -0.31999999 1.3333334
-0.012903226 -0.30967742 1.2903225
-0.0064516128 -0.30967742 1.2903225
0 -0.31304348 1.3043479
0.0065217391 -0.31304348 1.3043479
0.013043478 -0.31304348 1.3043479
0.019565217 -0.31304348 1.3043479
0.025806451 -0.30967742 1.2903225
0.031578947 -0.3031579 1.2631578
0.038709678 -0.30967742 1.2903225
0.044680852 -0.30638298 1.2765957
0.051063828 -0.30638298 1.2765957
0.056842104 -0.3031579 1.2631578
0.063157894 -0.3031579 1.2631578
0.070212767 -0.30638298 1.2765957
0.076595746 -0.30638298 1.2765957
0.082978725 -0.30638298 1.2765957
0.089361705 -0.30638298 1.2765957
0.095744684 -0.30638298 1.2765957
0.10212766 -0.30638298 1.2765957
0.12439024 -0.35121951 1.4634147
0.13170731 -0.35121951 1.4634147
0.13902439 -0.35121951 1.4634147
0.14634146 -0.35121951 1.4634147
0.15365854 -0.35121951 1.4634147
0.16097561 -0.35121951 1.4634147
0.16626506 -0.34698796 1.4457831
0.17349398 -0.34698796 1.4457831
0.18072289 -0.34698796 1.4457831
0.18571429 -0.34285715 1.4285715
0.19285715 -0.34285715 1.4285715
0.2 -0.34285715 1.4285715
0.21219513 -0.35121951 1.4634147
0.18857142 -0.2742857 1.1428572
0.19428572 -0.2742857 1.1428572
0.2 -0.2742857 1.1428572
0.20571429 -0.2742857 1.1428572
0.20555556 -0.26666668 1.1111112
0.21509434 -0.27169812 1.1320754
0.22075471 -0.27169812 1.1320754
0.22429906 -0.26915887 1.1214954
0.22990654 -0.26915887 1.1214954
0.2446602 -0.27961165 1.1650486
0.25048545 -0.27961165 1.1650486
0.25882354 -0.28235295 1.1764706
0.25961539 -0.27692309 1.1538461
0.26538461 -0.27692309 1.1538461
0.27115384 -0.27692309 1.1538461
0.27692309 -0.27692309 1.1538461
0.28269231 -0.27692309 1.1538461
-0.32359549 -0.31685394 1.3483146
-0.31685394 -0.31685394 1.3483146
-0.31011236 -0.31685394 1.3483146
-0.30681819 -0.32045454 1.3636364
-0.30000001 -0.32045454 1.3636364
-0.29318181 -0.32045454 1.3636364
-0.28636363 -0.32045454 1.3636364
-0.27333334 -0.31333333 1.3333334
-0.26666668 -0.31333333 1.3333334
-0.26590911 -0.32045454 1.3636364
-0.2590909 -0.32045454 1.3636364
-0.25227273 -0.32045454 1.3636364
-0.24269663 -0.31685394 1.3483146
-0.23595506 -0.31685394 1.3483146
-0.22173913 -0.30652174 1.3043479
-0.2152174 -0.30652174 1.3043479
-0.20869565 -0.30652174 1.3043479
-0.20217392 -0.30652174 1.3043479
-0.19565217 -0.30652174 1.3043479
-0.18913044 -0.30652174 1.3043479
-0.18260869 -0.30652174 1.3043479
-0.17419355 -0.30322582 1.2903225
-0.16774194 -0.30322582 1.2903225
-0.16129032 -0.30322582 1.2903225
-0.15652174 -0.30652174 1.3043479
-0.15000001 -0.30652174 1.3043479
-0.14193548 -0.30322582 1.2903225
-0.1575 -0.35249999 1.5
-0.15000001 -0.35249999 1.5
-0.1425 -0.35249999 1.5
-0.13500001 -0.35249999 1.5
-0.12911393 -0.35696203 1.5189873
-0.12151898 -0.35696203 1.5189873
-0.11392405 -0.35696203 1.5189873
-0.10769231 -0.36153847 1.5384616
-0.1 -0.36153847 1.5384616
-0.07173913 -0.30652174 1.3043479
-0.065217391 -0.30652174 1.3043479
-0.058695652 -0.30652174 1.3043479
-0.052173913 -0.30652174 1.3043479
-0.045652173 -0.30652174 1.3043479
-0.039130434 -0.30652174 1.3043479
-0.031914894 -0.30000001 1.2765957
-0.025531914 -0.30000001 1.2765957
-0.019148936 -0.30000001 1.2765957
-0.012903226 -0.30322582 1.2903225
-0.0064516128 -0.30322582 1.2903225
0 -0.30322582 1.2903225
0.0064516128 -0.30322582 1.2903225
0.013043478 -0.30652174 1.3043479
0.018947368 -0.2968421 1.2631578
0.025263159 -0.2968421 1.2631578
0.031578947 -0.2968421 1.2631578
0.037894737 -0.2968421 1.2631578
0.044680852 -0.30000001 1.2765957
0.050526317 -0.2968421 1.2631578
0.056842104 -0.2968421 1.2631578
0.063157894 -0.2968421 1.2631578
0.069473684 -0.2968421 1.2631578
0.076595746 -0.30000001 1.2765957
0.082978725 -0.30000001 1.2765957
0.095744684 -0.30000001 1.2765957
0.11707317 -0.34390244 1.4634147
0.12439024 -0.34390244 1.4634147
0.13170731 -0.34390244 1.4634147
0.13902439 -0.34390244 1.4634147
0.14634146 -0.34390244 1.4634147
0.15365854 -0.34390244 1.4634147
0.16097561 -0.34390244 1.4634147
0.16829269 -0.34390244 1.4634147
0.17560975 -0.34390244 1.4634147
0.18072289 -0.33975902 1.4457831
0.1879518 -0.33975902 1.4457831
0.19756098 -0.34390244 1.4634147
0.20487805 -0.34390244 1.4634147
0.21219513 -0.34390244 1.4634147
0.18857142 -0.26857144 1.1428572
0.19428572 -0.26857144 1.1428572
0.19444445 -0.26111111 1.1111112
0.2 -0.26111111 1.1111112
0.20555556 -0.26111111 1.1111112
0.21111111 -0.26111111 1.1111112
0.2146789 -0.2587156 1.1009175
0.22429906 -0.26355141 1.1214954
0.22990654 -0.26355141 1.1214954
0.23551401 -0.26355141 1.1214954
0.23669724 -0.2587156 1.1009175
0.24220183 -0.2587156 1.1009175
0.25961539 -0.27115384 1.1538461
0.26538461 -0.27115384 1.1538461
0.27115384 -0.27115384 1.1538461
0.27692309 -0.27115384 1.1538461
-0.32359549 -0.31011236 1.3483146
-0.31685394 -0.31011236 1.3483146
-0.31011236 -0.31011236 1.3483146
-0.30337077 -0.31011236 1.3483146
-0.30000001 -0.31363636 1.3636364
-0.29318181 -0.31363636 1.3636364
-0.28 -0.30666667 1.3333334
-0.27333334 -0.30666667 1.3333334
-0.26666668 -0.30666667 1.3333334
-0.25999999 -0.30666667 1.3333334
-0.25333333 -0.30666667 1.3333334
-0.24666667 -0.30666667 1.3333334
-0.23478261 -0.30000001 1.3043479
-0.22826087 -0.30000001 1.3043479
-0.22173913 -0.30000001 1.3043479
-0.2152174 -0.30000001 1.3043479
-0.20869565 -0.30000001 1.3043479
-0.20217392 -0.30000001 1.3043479
-0.19565217 -0.30000001 1.3043479
-0.18913044 -0.30000001 1.3043479
-0.18260869 -0.30000001 1.3043479
-0.17419355 -0.29677418 1.2903225
-0.16774194 -0.29677418 1.2903225
-0.16129032 -0.29677418 1.2903225
-0.15483871 -0.29677418 1.2903225
-0.16829269 -0.33658537 1.4634147
-0.16097561 -0.33658537 1.4634147
-0.15365854 -0.33658537 1.4634147
-0.15000001 -0.345 1.5
-0.1425 -0.345 1.5
-0.13500001 -0.345 1.5
-0.12911393 -0.34936708 1.5189873
-0.12151898 -0.34936708 1.5189873
-0.11392405 -0.34936708 1.5189873
-0.10632911 -0.34936708 1.5189873
-0.08387097 -0.29677418 1.2903225
-0.076595746 -0.29361701 1.2765957
-0.070212767 -0.29361701 1.2765957
-0.065217391 -0.30000001 1.3043479
-0.058695652 -0.30000001 1.3043479
-0.052173913 -0.30000001 1.3043479
-0.044680852 -0.29361701 1.2765957
-0.038297873 -0.29361701 1.2765957
-0.031914894 -0.29361701 1.2765957
-0.025531914 -0.29361701 1.2765957
-0.019148936 -0.29361701 1.2765957
-0.012765957 -0.29361701 1.2765957
-0.0064516128 -0.29677418 1.2903225
0 -0.29052633 1.2631578
0.0063157897 -0.29052633 1.2631578
0.012371134 -0.28453609 1.2371134
0.018947368 -0.29052633 1.2631578
0.025263159 -0.29052633 1.2631578
0.031578947 -0.29052633 1.2631578
0.037894737 -0.29052633 1.2631578
0.043749999 -0.28749999 1.25
0.050526317 -0.29052633 1.2631578
0.056842104 -0.29052633 1.2631578
0.063157894 -0.29052633 1.2631578
0.069473684 -0.29052633 1.2631578
0.075789474 -0.29052633 1.2631578
0.073584907 -0.26037735 1.1320754
0.1097561 -0.33658537 1.4634147
0.11707317 -0.33658537 1.4634147
0.12439024 -0.33658537 1.4634147
0.13170731 -0.33658537 1.4634147
0.13902439 -0.33658537 1.4634147
0.14634146 -0.33658537 1.4634147
0.15365854 -0.33658537 1.4634147
0.16097561 -0.33658537 1.4634147
0.16829269 -0.33658537 1.4634147
0.17560975 -0.33658537 1.4634147
0.18292683 -0.33658537 1.4634147
0.1902439 -0.33658537 1.4634147
0.19756098 -0.33658537 1.4634147
0.20487805 -0.33658537 1.4634147
0.21219513 -0.33658537 1.4634147
0.21951219 -0.33658537 1.4634147
0.18333334 -0.25555557 1.1111112
0.18888889 -0.25555557 1.1111112
0.19444445 -0.25555557 1.1111112
0.2 -0.25555557 1.1111112
0.20555556 -0.25555557 1.1111112
0.20917431 -0.25321102 1.1009175
0.2146789 -0.25321102 1.1009175
0.22018349 -0.25321102 1.1009175
0.22363636 -0.25090909 1.0909091
0.22909091 -0.25090909 1.0909091
0.23669724 -0.25321102 1.1009175
0.24220183 -0.25321102 1.1009175
0.24770643 -0.25321102 1.1009175
0.25090909 -0.25090909 1.0909091
0.25636363 -0.25090909 1.0909091
0.26181817 -0.25090909 1.0909091
-0.33033708 -0.30337077 1.3483146
-0.32359549 -0.30337077 1.3483146
-0.31685394 -0.30337077 1.3483146
-0.31011236 -0.30337077 1.3483146
-0.30337077 -0.30337077 1.3483146
-0.29333332 -0.30000001 1.3333334
-0.28666666 -0.30000001 1.3333334
-0.28 -0.30000001 1.3333334
-0.27032968 -0.29670331 1.3186814
-0.26666668 -0.30000001 1.3333334
-0.25999999 -0.30000001 1.3333334
-0.25333333 -0.30000001 1.3333334
-0.24130435 -0.29347825 1.3043479
-0.23478261 -0.29347825 1.3043479
-0.22826087 -0.29347825 1.3043479
-0.22173913 -0.29347825 1.3043479
-0.2152174 -0.29347825 1.3043479
-0.20869565 -0.29347825 1.3043479
-0.2 -0.29032257 1.2903225
-0.19354838 -0.29032257 1.2903225
-0.20963855 -0.3253012 1.4457831
-0.20240964 -0.3253012 1.4457831
-0.19518073 -0.3253012 1.4457831
-0.1879518 -0.3253012 1.4457831
-0.18072289 -0.3253012 1.4457831
-0.17349398 -0.3253012 1.4457831
-0.16829269 -0.32926831 1.4634147
-0.16097561 -0.32926831 1.4634147
-0.15365854 -0.32926831 1.4634147
-0.14634146 -0.32926831 1.4634147
-0.14074074 -0.33333334 1.4814814
-0.13333334 -0.33333334 1.4814814
-0.12911393 -0.34177214 1.5189873
-0.12151898 -0.34177214 1.5189873
-0.11392405 -0.34177214 1.5189873
-0.090322584 -0.29032257 1.2903225
-0.08387097 -0.29032257 1.2903225
-0.076595746 -0.28723404 1.2765957
-0.070212767 -0.28723404 1.2765957
-0.063829787 -0.28723404 1.2765957
-0.057446808 -0.28723404 1.2765957
-0.051063828 -0.28723404 1.2765957
-0.044680852 -0.28723404 1.2765957
-0.038297873 -0.28723404 1.2765957
-0.031914894 -0.28723404 1.2765957
-0.025531914 -0.28723404 1.2765957
-0.019148936 -0.28723404 1.2765957
-0.012765957 -0.28723404 1.2765957
-0.0063157897 -0.28421053 1.2631578
0 -0.28421053 1.2631578
0.0063157897 -0.28421053 1.2631578
0.012371134 -0.2783505 1.2371134
0.018556701 -0.2783505 1.2371134
0.024742268 -0.2783505 1.2371134
0.030927835 -0.2783505 1.2371134
0.036734693 -0.27551019 1.2244898
0.043749999 -0.28125 1.25
0.050000001 -0.28125 1.25
0.056842104 -0.28421053 1.2631578
0.063157894 -0.28421053 1.2631578
0.062264152 -0.25471699 1.1320754
0.067924529 -0.25471699 1.1320754
0.073584907 -0.25471699 1.1320754
0.079245284 -0.25471699 1.1320754
0.084905662 -0.25471699 1.1320754
0.11707317 -0.32926831 1.4634147
0.12439024 -0.32926831 1.4634147
0.13170731 -0.32926831 1.4634147
0.13902439 -0.32926831 1.4634147
0.14634146 -0.32926831 1.4634147
0.15365854 -0.32926831 1.4634147
0.16097561 -0.32926831 1.4634147
0.16829269 -0.32926831 1.4634147
0.17560975 -0.32926831 1.4634147
0.18292683 -0.32926831 1.4634147
0.1902439 -0.32926831 1.4634147
0.19756098 -0.32926831 1.4634147
0.20487805 -0.32926831 1.4634147
0.21219513 -0.32926831 1.4634147
0.17837837 -0.24324325 1.081081
0.18888889 -0.25 1.1111112
0.19444445 -0.25 1.1111112
0.2 -0.25 1.1111112
0.20181818 -0.24545455 1.0909091
0.20727272 -0.24545455 1.0909091
0.2146789 -0.24770643 1.1009175
0.21818182 -0.24545455 1.0909091
0.22363636 -0.24545455 1.0909091
0.22909091 -0.24545455 1.0909091
0.23454545 -0.24545455 1.0909091
0.24220183 -0.24770643 1.1009175
0.24545455 -0.24545455 1.0909091
0.25090909 -0.24545455 1.0909091
0.25636363 -0.24545455 1.0909091
0.26181817 -0.24545455 1.0909091
0.26727274 -0.24545455 1.0909091
0.28108108 -0.24324325 1.081081
0.28648648 -0.24324325 1.081081
-0.32359549 -0.29662922 1.3483146
-0.31685394 -0.29662922 1.3483146
-0.31011236 -0.29662922 1.3483146
-0.30337077 -0.29662922 1.3483146
-0.28695652 -0.28695652 1.3043479
-0.28666666 -0.29333332 1.3333334
-0.28 -0.29333332 1.3333334
-0.27032968 -0.2901099 1.3186814
-0.26373628 -0.2901099 1.3186814
-0.25999999 -0.29333332 1.3333334
-0.24782608 -0.28695652 1.3043479
-0.24130435 -0.28695652 1.3043479
-0.22978723 -0.28085107 1.2765957
-0.22826087 -0.28695652 1.3043479
-0.22173913 -0.28695652 1.3043479
-0.2152174 -0.28695652 1.3043479
-0.20645161 -0.28387097 1.2903225
-0.2 -0.28387097 1.2903225
-0.21686748 -0.31807229 1.4457831
-0.20963855 -0.31807229 1.4457831
-0.20240964 -0.31807229 1.4457831
-0.19518073 -0.31807229 1.4457831
-0.1879518 -0.31807229 1.4457831
-0.18072289 -0.31807229 1.4457831
-0.17349398 -0.31807229 1.4457831
-0.16829269 -0.32195121 1.4634147
-0.16097561 -0.32195121 1.4634147
-0.15365854 -0.32195121 1.4634147
-0.14634146 -0.32195121 1.4634147
-0.14074074 -0.32592592 1.4814814
-0.13333334 -0.32592592 1.4814814
-0.12911393 -0.33417723 1.5189873
-0.12151898 -0.33417723 1.5189873
-0.096774191 -0.28387097 1.2903225
-0.090322584 -0.28387097 1.2903225
-0.08387097 -0.28387097 1.2903225
-0.076595746 -0.28085107 1.2765957
-0.070212767 -0.28085107 1.2765957
-0.063829787 -0.28085107 1.2765957
-0.056842104 -0.27789474 1.2631578
-0.051063828 -0.28085107 1.2765957
-0.044210527 -0.27789474 1.2631578
-0.037894737 -0.27789474 1.2631578
-0.031914894 -0.28085107 1.2765957
-0.025531914 -0.28085107 1.2765957
-0.018556701 -0.27216494 1.2371134
-0.012371134 -0.27216494 1.2371134
-0.006185567 -0.27216494 1.2371134
0 -0.27789474 1.2631578
0.006185567 -0.27216494 1.2371134
0.012371134 -0.27216494 1.2371134
0.018556701 -0.27216494 1.2371134
0.024742268 -0.27216494 1.2371134
0.030927835 -0.27216494 1.2371134
0.036734693 -0.26938775 1.2244898
0.042857144 -0.26938775 1.2244898
0.048979592 -0.26938775 1.2244898
0.050943397 -0.24905661 1.1320754
0.056603774 -0.24905661 1.1320754
0.062264152 -0.24905661 1.1320754
0.067924529 -0.24905661 1.1320754
0.073584907 -0.24905661 1.1320754
0.079245284 -0.24905661 1.1320754
0.084905662 -0.24905661 1.1320754
0.11707317 -0.32195121 1.4634147
0.12439024 -0.32195121 1.4634147
0.13170731 -0.32195121 1.4634147
0.13902439 -0.32195121 1.4634147
0.14634146 -0.32195121 1.4634147
0.15365854 -0.32195121 1.4634147
0.16097561 -0.32195121 1.4634147
0.16829269 -0.32195121 1.4634147
0.17560975 -0.32195121 1.4634147
0.18292683 -0.32195121 1.4634147
0.1902439 -0.32195121 1.4634147
0.19756098 -0.32195121 1.4634147
0.20487805 -0.32195121 1.4634147
0.21219513 -0.32195121 1.4634147
0.17837837 -0.23783784 1.081081
0.18378378 -0.23783784 1.081081
0.1891892 -0.23783784 1.081081
0.19285715 -0.23571429 1.0714285
0.20181818 -0.23999999 1.0909091
0.20727272 -0.23999999 1.0909091
0.20892857 -0.23571429 1.0714285
0.21818182 -0.23999999 1.0909091
0.22363636 -0.23999999 1.0909091
0.22909091 -0.23999999 1.0909091
0.23454545 -0.23999999 1.0909091
0.23783784 -0.23783784 1.081081
0.24324325 -0.23783784 1.081081
0.25090909 -0.23999999 1.0909091
0.25636363 -0.23999999 1.0909091
0.26181817 -0.23999999 1.0909091
0.26249999 -0.23571429 1.0714285
0.26785713 -0.23571429 1.0714285
0.27567568 -0.23783784 1.081081
0.28108108 -0.23783784 1.081081
0.28648648 -0.23783784 1.081081
0.2918919 -0.23783784 1.081081
0.2972973 -0.23783784 1.081081
0.30810812 -0.23783784 1.081081
-0.32359549 -0.28988764 1.3483146
-0.31685394 -0.28988764 1.3483146
-0.31011236 -0.28988764 1.3483146
-0.29347825 -0.28043479 1.3043479
-0.28695652 -0.28043479 1.3043479
-0.28043479 -0.28043479 1.3043479
-0.27391306 -0.28043479 1.3043479
-0.26451612 -0.27741936 1.2903225
-0.25531915 -0.27446809 1.2765957
-0.24893618 -0.27446809 1.2765957
-0.24255319 -0.27446809 1.2765957
-0.23617022 -0.27446809 1.2765957
-0.22978723 -0.27446809 1.2765957
-0.22340426 -0.27446809 1.2765957
-0.21702127 -0.27446809 1.2765957
-0.2106383 -0.27446809 1.2765957
-0.2313253 -0.31084338 1.4457831
-0.2 -0.27741936 1.2903225
-0.21686748 -0.31084338 1.4457831
-0.20963855 -0.31084338 1.4457831
-0.20240964 -0.31084338 1.4457831
-0.19518073 -0.31084338 1.4457831
-0.1879518 -0.31084338 1.4457831
-0.18072289 -0.31084338 1.4457831
-0.17349398 -0.31084338 1.4457831
-0.16829269 -0.31463414 1.4634147
-0.16097561 -0.31463414 1.4634147
-0.15365854 -0.31463414 1.4634147
-0.14634146 -0.31463414 1.4634147
-0.13902439 -0.31463414 1.4634147
-0.13170731 -0.31463414 1.4634147
-0.12592593 -0.31851852 1.4814814
-0.1032258 -0.27741936 1.2903225
-0.096774191 -0.27741936 1.2903225
-0.090322584 -0.27741936 1.2903225
-0.08387097 -0.27741936 1.2903225
-0.075789474 -0.27157894 1.2631578
-0.070212767 -0.27446809 1.2765957
-0.063157894 -0.27157894 1.2631578
-0.056842104 -0.27157894 1.2631578
-0.050526317 -0.27157894 1.2631578
-0.044210527 -0.27157894 1.2631578
-0.037894737 -0.27157894 1.2631578
-0.030927835 -0.26597938 1.2371134
-0.024742268 -0.26597938 1.2371134
-0.018556701 -0.26597938 1.2371134
-0.012371134 -0.26597938 1.2371134
-0.006185567 -0.26597938 1.2371134
0 -0.26597938 1.2371134
0.006185567 -0.26597938 1.2371134
0.012371134 -0.26597938 1.2371134
0.018367346 -0.26326531 1.2244898
0.024489796 -0.26326531 1.2244898
0.030927835 -0.26597938 1.2371134
0.036734693 -0.26326531 1.2244898
0.042857144 -0.26326531 1.2244898
0.048979592 -0.26326531 1.2244898
0.050943397 -0.24339622 1.1320754
0.056603774 -0.24339622 1.1320754
0.062264152 -0.24339622 1.1320754
0.067924529 -0.24339622 1.1320754
0.073584907 -0.24339622 1.1320754
0.079245284 -0.24339622 1.1320754
0.084905662 -0.24339622 1.1320754
0.090566039 -0.24339622 1.1320754
0.13170731 -0.31463414 1.4634147
0.13902439 -0.31463414 1.4634147
0.17560975 -0.31463414 1.4634147
0.19756098 -0.31463414 1.4634147
0.15929204 -0.22831859 1.0619469
0.16460177 -0.22831859 1.0619469
0.17297298 -0.23243243 1.081081
0.17837837 -0.23243243 1.081081
0.18378378 -0.23243243 1.081081
0.1891892 -0.23243243 1.081081
0.19285715 -0.23035714 1.0714285
0.19821429 -0.23035714 1.0714285
0.20357142 -0.23035714 1.0714285
0.20892857 -0.23035714 1.0714285
0.21428572 -0.23035714 1.0714285
0.21964286 -0.23035714 1.0714285
0.22499999 -0.23035714 1.0714285
0.23243243 -0.23243243 1.081081
0.23783784 -0.23243243 1.081081
0.23893805 -0.22831859 1.0619469
0.24424779 -0.22831859 1.0619469
0.24955752 -0.22831859 1.0619469
0.25486726 -0.22831859 1.0619469
0.26249999 -0.23035714 1.0714285
0.26785713 -0.23035714 1.0714285
0.27567568 -0.23243243 1.081081
0.28108108 -0.23243243 1.081081
0.28648648 -0.23243243 1.081081
0.2918919 -0.23243243 1.081081
0.2972973 -0.23243243 1.081081
0.3027027 -0.23243243 1.081081
0.30810812 -0.23243243 1.081081
0.31351352 -0.23243243 1.081081
0.31891891 -0.23243243 1.081081
-0.30000001 -0.27391306 1.3043479
-0.29347825 -0.27391306 1.3043479
-0.28695652 -0.27391306 1.3043479
-0.28043479 -0.27391306 1.3043479
-0.27096775 -0.27096775 1.2903225
-0.26451612 -0.27096775 1.2903225
-0.25531915 -0.26808509 1.2765957
-0.24893618 -0.26808509 1.2765957
-0.24255319 -0.26808509 1.2765957
-0.23617022 -0.26808509 1.2765957
-0.22978723 -0.26808509 1.2765957
-0.22340426 -0.26808509 1.2765957
-0.21702127 -0.26808509 1.2765957
-0.23855421 -0.30361447 1.4457831
-0.2313253 -0.30361447 1.4457831
-0.22409639 -0.30361447 1.4457831
-0.21686748 -0.30361447 1.4457831
-0.20963855 -0.30361447 1.4457831
-0.20240964 -0.30361447 1.4457831
-0.19518073 -0.30361447 1.4457831
-0.1879518 -0.30361447 1.4457831
-0.18072289 -0.30361447 1.4457831
-0.15319149 -0.26808509 1.2765957
-0.14680851 -0.26808509 1.2765957
-0.16097561 -0.30731708 1.4634147
-0.15365854 -0.30731708 1.4634147
-0.14634146 -0.30731708 1.4634147
-0.13902439 -0.30731708 1.4634147
-0.13170731 -0.30731708 1.4634147
-0.10736842 -0.26526317 1.2631578
-0.10105263 -0.26526317 1.2631578
-0.094736844 -0.26526317 1.2631578
-0.088421054 -0.26526317 1.2631578
-0.082105264 -0.26526317 1.2631578
-0.075789474 -0.26526317 1.2631578
-0.068750001 -0.26249999 1.25
-0.0625 -0.26249999 1.25
-0.056249999 -0.26249999 1.25
-0.050000001 -0.26249999 1.25
-0.043749999 -0.26249999 1.25
-0.037500001 -0.26249999 1.25
-0.030927835 -0.25979382 1.2371134
-0.024742268 -0.25979382 1.2371134
-0.018556701 -0.25979382 1.2371134
-0.012371134 -0.25979382 1.2371134
-0.006185567 -0.25979382 1.2371134
0 -0.25714287 1.2244898
0.0061224489 -0.25714287 1.2244898
0.012121212 -0.25454545 1.2121212
0.018181818 -0.25454545 1.2121212
0.024489796 -0.25714287 1.2244898
0.030303031 -0.25454545 1.2121212
0.036363635 -0.25454545 1.2121212
0.04158416 -0.24950495 1.1881188
0.04528302 -0.23773585 1.1320754
0.050943397 -0.23773585 1.1320754
0.056603774 -0.23773585 1.1320754
0.062264152 -0.23773585 1.1320754
0.067924529 -0.23773585 1.1320754
0.073584907 -0.23773585 1.1320754
0.079245284 -0.23773585 1.1320754
0.084905662 -0.23773585 1.1320754
0.14867257 -0.22300886 1.0619469
0.1539823 -0.22300886 1.0619469
0.15929204 -0.22300886 1.0619469
0.16460177 -0.22300886 1.0619469
0.1699115 -0.22300886 1.0619469
0.17837837 -0.22702703 1.081081
0.18378378 -0.22702703 1.081081
0.1891892 -0.22702703 1.081081
0.19285715 -0.22499999 1.0714285
0.19646017 -0.22300886 1.0619469
0.20176992 -0.22300886 1.0619469
0.20892857 -0.22499999 1.0714285
0.21238938 -0.22300886 1.0619469
0.21769911 -0.22300886 1.0619469
0.22300886 -0.22300886 1.0619469
0.22831859 -0.22300886 1.0619469
0.23362832 -0.22300886 1.0619469
0.23893805 -0.22300886 1.0619469
0.24424779 -0.22300886 1.0619469
0.24955752 -0.22300886 1.0619469
0.25486726 -0.22300886 1.0619469
0.26249999 -0.22499999 1.0714285
0.26785713 -0.22499999 1.0714285
0.27567568 -0.22702703 1.081081
0.28108108 -0.22702703 1.081081
0.28648648 -0.22702703 1.081081
0.2918919 -0.22702703 1.081081
0.2972973 -0.22702703 1.081081
0.3027027 -0.22702703 1.081081
0.30810812 -0.22702703 1.081081
0.31351352 -0.22702703 1.081081
0.31891891 -0.22702703 1.081081
-0.30000001 -0.26739129 1.3043479
-0.28723404 -0.26170212 1.2765957
-0.28085107 -0.26170212 1.2765957
-0.27446809 -0.26170212 1.2765957
-0.27096775 -0.26451612 1.2903225
