# .PCD v0.7 - Point Cloud Data file format
VERSION 0.7
FIELDS x y z
SIZE 4 4 4
TYPE F F F
COUNT 1 1 1
WIDTH 1518
HEIGHT 1
VIEWPOINT 0 0 0 1 0 0 0
POINTS 1518
DATA ascii
0.058407079 0.074336283 1.0619469
0.063716814 0.074336283 1.0619469
0.069026552 0.074336283 1.0619469
0.074336283 0.074336283 1.0619469
0.079646021 0.074336283 1.0619469
0.084955752 0.074336283 1.0619469
0.09026549 0.074336283 1.0619469
0.096428573 0.075000003 1.0714285
0.10088496 0.074336283 1.0619469
0.10810811 0.075675674 1.081081
0.1125 0.075000003 1.0714285
0.11785714 0.075000003 1.0714285
0.12321428 0.075000003 1.0714285
0.12972973 0.075675674 1.081081
0.13513513 0.075675674 1.081081
0.14181818 0.076363638 1.0909091
0.14464286 0.075000003 1.0714285
0.15135135 0.075675674 1.081081
0.15675676 0.075675674 1.081081
0.16216215 0.075675674 1.081081
0.16756757 0.075675674 1.081081
0.17454545 0.076363638 1.0909091
0.18000001 0.076363638 1.0909091
0.18378378 0.075675674 1.081081
0.19266056 0.077064224 1.1009175
0.19816513 0.077064224 1.1009175
0.20555556 0.077777781 1.1111112
0.21111111 0.077777781 1.1111112
0.2146789 0.077064224 1.1009175
0.22018349 0.077064224 1.1009175
0.22777778 0.077777781 1.1111112
0.23119266 0.077064224 1.1009175
0.23888889 0.077777781 1.1111112
0.24444444 0.077777781 1.1111112
0.24770643 0.077064224 1.1009175
0.25555557 0.077777781 1.1111112
0.26111111 0.077777781 1.1111112
0.26666668 0.077777781 1.1111112
0.2773585 0.079245284 1.1320754
0.28037384 0.078504674 1.1214954
0.2859813 0.078504674 1.1214954
0.29714286 0.079999998 1.1428572
0.30285713 0.079999998 1.1428572
0.31153846 0.080769233 1.1538461
0.31730768 0.080769233 1.1538461
0.3262136 0.0815534 1.1650486
0.33203885 0.0815534 1.1650486
0.33786407 0.0815534 1.1650486
0.34368932 0.0815534 1.1650486
-0.31011236 0.10112359 1.3483146
-0.30337077 0.10112359 1.3483146
-0.29662922 0.10112359 1.3483146
-0.28988764 0.10112359 1.3483146
-0.28 0.1 1.3333334
-0.27333334 0.1 1.3333334
-0.26373628 0.0989011 1.3186814
-0.25714287 0.0989011 1.3186814
-0.25054947 0.0989011 1.3186814
-0.24395604 0.0989011 1.3186814
-0.23736264 0.0989011 1.3186814
-0.22826087 0.097826086 1.3043479
-0.22173913 0.097826086 1.3043479
-0.2152174 0.097826086 1.3043479
-0.20869565 0.097826086 1.3043479
-0.20217392 0.097826086 1.3043479
-0.19565217 0.097826086 1.3043479
-0.18913044 0.097826086 1.3043479
-0.18260869 0.097826086 1.3043479
-0.17608696 0.097826086 1.3043479
-0.16956522 0.097826086 1.3043479
-0.16304348 0.097826086 1.3043479
-0.15652174 0.097826086 1.3043479
-0.15164836 0.0989011 1.3186814
-0.14505495 0.0989011 1.3186814
-0.13846155 0.0989011 1.3186814
-0.13186814 0.0989011 1.3186814
-0.12527473 0.0989011 1.3186814
-0.094736844 0.078947365 1.0526316
-0.089473687 0.078947365 1.0526316
-0.08421053 0.078947365 1.0526316
-0.078947365 0.078947365 1.0526316
-0.073684208 0.078947365 1.0526316
-0.068421051 0.078947365 1.0526316
-0.063157894 0.078947365 1.0526316
-0.057894737 0.078947365 1.0526316
-0.052631579 0.078947365 1.0526316
-0.046956521 0.078260869 1.0434783
-0.042105265 0.078947365 1.0526316
-0.03652174 0.078260869 1.0434783
-0.031304348 0.078260869 1.0434783
-0.02631579 0.078947365 1.0526316
-0.021052632 0.078947365 1.0526316
-0.015789473 0.078947365 1.0526316
-0.010526316 0.078947365 1.0526316
-0.0052631581 0.078947365 1.0526316
0 0.078947365 1.0526316
0.0052631581 0.078947365 1.0526316
0.010526316 0.078947365 1.0526316
0.015789473 0.078947365 1.0526316
0.021052632 0.078947365 1.0526316
0.02631579 0.078947365 1.0526316
0.031578947 0.078947365 1.0526316
0.036842104 0.078947365 1.0526316
0.042105265 0.078947365 1.0526316
0.047368422 0.078947365 1.0526316
0.053097345 0.079646021 1.0619469
0.058407079 0.079646021 1.0619469
0.063716814 0.079646021 1.0619469
0.069026552 0.079646021 1.0619469
0.074336283 0.079646021 1.0619469
0.079646021 0.079646021 1.0619469
0.084955752 0.079646021 1.0619469
0.09026549 0.079646021 1.0619469
0.096428573 0.080357142 1.0714285
0.1027027 0.081081077 1.081081
0.10810811 0.081081077 1.081081
0.11351351 0.081081077 1.081081
0.11785714 0.080357142 1.0714285
0.12545455 0.081818178 1.0909091
0.12972973 0.081081077 1.081081
0.13636364 0.081818178 1.0909091
0.14181818 0.081818178 1.0909091
0.14727272 0.081818178 1.0909091
0.15135135 0.081081077 1.081081
0.15963303 0.082568809 1.1009175
0.16666667 0.083333336 1.1111112
0.17222223 0.083333336 1.1111112
0.17454545 0.081818178 1.0909091
0.18000001 0.081818178 1.0909091
0.18715596 0.082568809 1.1009175
0.19266056 0.082568809 1.1009175
0.20186916 0.084112152 1.1214954
0.20555556 0.083333336 1.1111112
0.21111111 0.083333336 1.1111112
0.21666667 0.083333336 1.1111112
0.22222222 0.083333336 1.1111112
0.22777778 0.083333336 1.1111112
0.23333333 0.083333336 1.1111112
0.23888889 0.083333336 1.1111112
0.24444444 0.083333336 1.1111112
0.25 0.083333336 1.1111112
0.25555557 0.083333336 1.1111112
0.26111111 0.083333336 1.1111112
0.27169812 0.084905662 1.1320754
0.2773585 0.084905662 1.1320754
0.28301886 0.084905662 1.1320754
0.29142857 0.085714288 1.1428572
0.29714286 0.085714288 1.1428572
0.30576923 0.086538464 1.1538461
0.31153846 0.086538464 1.1538461
0.32038835 0.087378643 1.1650486
0.3262136 0.087378643 1.1650486
0.33203885 0.087378643 1.1650486
0.33786407 0.087378643 1.1650486
0.34368932 0.087378643 1.1650486
-0.30337077 0.10786517 1.3483146
-0.29662922 0.10786517 1.3483146
-0.28988764 0.10786517 1.3483146
-0.28 0.10666667 1.3333334
-0.27333334 0.10666667 1.3333334
-0.26666668 0.10666667 1.3333334
-0.25714287 0.10549451 1.3186814
-0.25054947 0.10549451 1.3186814
-0.24395604 0.10549451 1.3186814
-0.23736264 0.10549451 1.3186814
-0.22826087 0.10434783 1.3043479
-0.22173913 0.10434783 1.3043479
-0.2152174 0.10434783 1.3043479
-0.20869565 0.10434783 1.3043479
-0.20217392 0.10434783 1.3043479
-0.19565217 0.10434783 1.3043479
-0.18913044 0.10434783 1.3043479
-0.18260869 0.10434783 1.3043479
-0.17608696 0.10434783 1.3043479
-0.16956522 0.10434783 1.3043479
-0.16483517 0.10549451 1.3186814
-0.15824176 0.10549451 1.3186814
-0.15164836 0.10549451 1.3186814
-0.14505495 0.10549451 1.3186814
-0.13846155 0.10549451 1.3186814
-0.13186814 0.10549451 1.3186814
-0.12527473 0.10549451 1.3186814
-0.094736844 0.08421053 1.0526316
-0.089473687 0.08421053 1.0526316
-0.08421053 0.08421053 1.0526316
-0.078947365 0.08421053 1.0526316
-0.073684208 0.08421053 1.0526316
-0.068421051 0.08421053 1.0526316
-0.063157894 0.08421053 1.0526316
-0.057391305 0.083478265 1.0434783
-0.052631579 0.08421053 1.0526316
-0.046956521 0.083478265 1.0434783
-0.041739132 0.083478265 1.0434783
-0.03652174 0.083478265 1.0434783
-0.031304348 0.083478265 1.0434783
-0.026086956 0.083478265 1.0434783
-0.021052632 0.08421053 1.0526316
-0.015789473 0.08421053 1.0526316
-0.010526316 0.08421053 1.0526316
-0.0052631581 0.08421053 1.0526316
0 0.08421053 1.0526316
0.0052631581 0.08421053 1.0526316
0.010526316 0.08421053 1.0526316
0.015789473 0.08421053 1.0526316
0.021052632 0.08421053 1.0526316
0.02631579 0.08421053 1.0526316
0.031858407 0.084955752 1.0619469
0.037168141 0.084955752 1.0619469
0.042477876 0.084955752 1.0619469
0.04778761 0.084955752 1.0619469
0.053097345 0.084955752 1.0619469
0.058407079 0.084955752 1.0619469
0.064285718 0.085714288 1.0714285
0.069642857 0.085714288 1.0714285
0.075675674 0.086486489 1.081081
0.081081077 0.086486489 1.081081
0.087272726 0.087272726 1.0909091
0.092727274 0.087272726 1.0909091
0.1 0.088888891 1.1111112
0.1027027 0.086486489 1.081081
0.10810811 0.086486489 1.081081
0.11559633 0.088073395 1.1009175
0.12110092 0.088073395 1.1009175
0.12545455 0.087272726 1.0909091
0.13211009 0.088073395 1.1009175
0.13761468 0.088073395 1.1009175
0.14181818 0.087272726 1.0909091
0.14727272 0.087272726 1.0909091
0.15555556 0.088888891 1.1111112
0.15963303 0.088073395 1.1009175
0.16666667 0.088888891 1.1111112
0.17222223 0.088888891 1.1111112
0.17777778 0.088888891 1.1111112
0.18333334 0.088888891 1.1111112
0.1906542 0.089719623 1.1214954
0.19626169 0.089719623 1.1214954
0.20186916 0.089719623 1.1214954
0.20747663 0.089719623 1.1214954
0.21111111 0.088888891 1.1111112
0.21666667 0.088888891 1.1111112
0.22222222 0.088888891 1.1111112
0.22777778 0.088888891 1.1111112
0.23333333 0.088888891 1.1111112
0.23888889 0.088888891 1.1111112
0.24905661 0.090566039 1.1320754
0.25471699 0.090566039 1.1320754
0.26037735 0.090566039 1.1320754
0.26857144 0.09142857 1.1428572
0.2742857 0.09142857 1.1428572
0.28 0.09142857 1.1428572
0.2857143 0.09142857 1.1428572
0.29423076 0.092307694 1.1538461
0.30000001 0.092307694 1.1538461
0.30576923 0.092307694 1.1538461
0.3145631 0.09320388 1.1650486
0.32038835 0.09320388 1.1650486
0.3262136 0.09320388 1.1650486
0.34897959 0.097959183 1.2244898
0.35510203 0.097959183 1.2244898
0.3612245 0.097959183 1.2244898
-0.31363636 0.11590909 1.3636364
-0.30681819 0.11590909 1.3636364
-0.30000001 0.11590909 1.3636364
-0.29318181 0.11590909 1.3636364
-0.28636363 0.11590909 1.3636364
-0.27333334 0.11333334 1.3333334
-0.26666668 0.11333334 1.3333334
-0.25999999 0.11333334 1.3333334
-0.25333333 0.11333334 1.3333334
-0.24666667 0.11333334 1.3333334
-0.23736264 0.11208791 1.3186814
-0.23076923 0.11208791 1.3186814
-0.22417583 0.11208791 1.3186814
-0.2152174 0.11086956 1.3043479
-0.21098901 0.11208791 1.3186814
-0.20439561 0.11208791 1.3186814
-0.19565217 0.11086956 1.3043479
-0.19120879 0.11208791 1.3186814
-0.18461539 0.11208791 1.3186814
-0.17608696 0.11086956 1.3043479
-0.17142858 0.11208791 1.3186814
-0.16483517 0.11208791 1.3186814
-0.15824176 0.11208791 1.3186814
-0.15164836 0.11208791 1.3186814
-0.14505495 0.11208791 1.3186814
-0.13846155 0.11208791 1.3186814
-0.13186814 0.11208791 1.3186814
-0.12527473 0.11208791 1.3186814
-0.094736844 0.089473687 1.0526316
-0.089473687 0.089473687 1.0526316
-0.08421053 0.089473687 1.0526316
-0.078947365 0.089473687 1.0526316
-0.073684208 0.089473687 1.0526316
-0.068421051 0.089473687 1.0526316
-0.062608697 0.088695653 1.0434783
-0.057391305 0.088695653 1.0434783
-0.052173913 0.088695653 1.0434783
-0.046956521 0.088695653 1.0434783
-0.041739132 0.088695653 1.0434783
-0.03652174 0.088695653 1.0434783
-0.031304348 0.088695653 1.0434783
-0.026086956 0.088695653 1.0434783
-0.021052632 0.089473687 1.0526316
-0.015789473 0.089473687 1.0526316
-0.010526316 0.089473687 1.0526316
-0.0052631581 0.089473687 1.0526316
0 0.089473687 1.0526316
0.0052631581 0.089473687 1.0526316
0.010619469 0.09026549 1.0619469
0.015929203 0.09026549 1.0619469
0.021238938 0.09026549 1.0619469
0.026548672 0.09026549 1.0619469
0.031858407 0.09026549 1.0619469
0.037168141 0.09026549 1.0619469
0.042477876 0.09026549 1.0619469
0.04778761 0.09026549 1.0619469
0.053097345 0.09026549 1.0619469
0.059459459 0.091891892 1.081081
0.064285718 0.091071427 1.0714285
0.069642857 0.091071427 1.0714285
0.075675674 0.091891892 1.081081
0.081081077 0.091891892 1.081081
0.087272726 0.092727274 1.0909091
0.094444446 0.094444446 1.1111112
0.1 0.094444446 1.1111112
0.10555556 0.094444446 1.1111112
0.11111111 0.094444446 1.1111112
0.11666667 0.094444446 1.1111112
0.12222222 0.094444446 1.1111112
0.12777779 0.094444446 1.1111112
0.13211009 0.093577981 1.1009175
0.1388889 0.094444446 1.1111112
0.14444445 0.094444446 1.1111112
0.15000001 0.094444446 1.1111112
0.15555556 0.094444446 1.1111112
0.16111112 0.094444446 1.1111112
0.1682243 0.095327102 1.1214954
0.17383178 0.095327102 1.1214954
0.17777778 0.094444446 1.1111112
0.18504673 0.095327102 1.1214954
0.1906542 0.095327102 1.1214954
0.19626169 0.095327102 1.1214954
0.20186916 0.095327102 1.1214954
0.20747663 0.095327102 1.1214954
0.21111111 0.094444446 1.1111112
0.22075471 0.096226417 1.1320754
0.2264151 0.096226417 1.1320754
0.23207547 0.096226417 1.1320754
0.23773585 0.096226417 1.1320754
0.24339622 0.096226417 1.1320754
0.24905661 0.096226417 1.1320754
0.25471699 0.096226417 1.1320754
0.26037735 0.096226417 1.1320754
0.26857144 0.09714286 1.1428572
0.2742857 0.09714286 1.1428572
0.28 0.09714286 1.1428572
0.28846154 0.098076925 1.1538461
0.29423076 0.098076925 1.1538461
0.30000001 0.098076925 1.1538461
0.30873787 0.099029124 1.1650486
0.3145631 0.099029124 1.1650486
0.32038835 0.099029124 1.1650486
0.336 0.102 1.2
0.34897959 0.10408163 1.2244898
0.35510203 0.10408163 1.2244898
0.3612245 0.10408163 1.2244898
0.36734694 0.10408163 1.2244898
-0.30681819 0.12272727 1.3636364
-0.30000001 0.12272727 1.3636364
-0.29318181 0.12272727 1.3636364
-0.28636363 0.12272727 1.3636364
-0.27954546 0.12272727 1.3636364
-0.26666668 0.12 1.3333334
-0.25999999 0.12 1.3333334
-0.25333333 0.12 1.3333334
-0.24666667 0.12 1.3333334
-0.23736264 0.11868132 1.3186814
-0.23333333 0.12 1.3333334
-0.22417583 0.11868132 1.3186814
-0.21758242 0.11868132 1.3186814
-0.21098901 0.11868132 1.3186814
-0.20439561 0.11868132 1.3186814
-0.1978022 0.11868132 1.3186814
-0.19120879 0.11868132 1.3186814
-0.18461539 0.11868132 1.3186814
-0.17802198 0.11868132 1.3186814
-0.17142858 0.11868132 1.3186814
-0.16483517 0.11868132 1.3186814
-0.15824176 0.11868132 1.3186814
-0.15164836 0.11868132 1.3186814
-0.14505495 0.11868132 1.3186814
-0.13846155 0.11868132 1.3186814
-0.13333334 0.12 1.3333334
-0.12666667 0.12 1.3333334
-0.12 0.12 1.3333334
-0.11333334 0.12 1.3333334
-0.08421053 0.094736844 1.0526316
-0.10112359 0.12134831 1.3483146
-0.073684208 0.094736844 1.0526316
-0.067826085 0.093913041 1.0434783
-0.062608697 0.093913041 1.0434783
-0.057391305 0.093913041 1.0434783
-0.052173913 0.093913041 1.0434783
-0.046956521 0.093913041 1.0434783
-0.041739132 0.093913041 1.0434783
-0.03652174 0.093913041 1.0434783
-0.031304348 0.093913041 1.0434783
-0.02631579 0.094736844 1.0526316
-0.021052632 0.094736844 1.0526316
-0.015789473 0.094736844 1.0526316
-0.010526316 0.094736844 1.0526316
-0.0052631581 0.094736844 1.0526316
0 0.094736844 1.0526316
0.0052631581 0.094736844 1.0526316
0.010619469 0.095575221 1.0619469
0.015929203 0.095575221 1.0619469
0.021428572 0.096428573 1.0714285
0.026785715 0.096428573 1.0714285
0.031858407 0.095575221 1.0619469
0.037168141 0.095575221 1.0619469
0.042477876 0.095575221 1.0619469
0.04778761 0.095575221 1.0619469
0.054054055 0.097297296 1.081081
0.059459459 0.097297296 1.081081
0.064864866 0.097297296 1.081081
0.072222225 0.1 1.1111112
0.077777781 0.1 1.1111112
0.083333336 0.1 1.1111112
0.088888891 0.1 1.1111112
0.094444446 0.1 1.1111112
0.1 0.1 1.1111112
0.10555556 0.1 1.1111112
0.11111111 0.1 1.1111112
0.11666667 0.1 1.1111112
0.12222222 0.1 1.1111112
0.12777779 0.1 1.1111112
0.13333334 0.1 1.1111112
0.1388889 0.1 1.1111112
0.14444445 0.1 1.1111112
0.15000001 0.1 1.1111112
0.15555556 0.1 1.1111112
0.16261682 0.10093458 1.1214954
0.1682243 0.10093458 1.1214954
0.17383178 0.10093458 1.1214954
0.17943925 0.10093458 1.1214954
0.18504673 0.10093458 1.1214954
0.1906542 0.10093458 1.1214954
0.19626169 0.10093458 1.1214954
0.20377359 0.10188679 1.1320754
0.20943396 0.10188679 1.1320754
0.21509434 0.10188679 1.1320754
0.22075471 0.10188679 1.1320754
0.2264151 0.10188679 1.1320754
0.23207547 0.10188679 1.1320754
0.23773585 0.10188679 1.1320754
0.24339622 0.10188679 1.1320754
0.24905661 0.10188679 1.1320754
0.25714287 0.10285714 1.1428572
0.26285714 0.10285714 1.1428572
0.26857144 0.10285714 1.1428572
0.2742857 0.10285714 1.1428572
0.28269231 0.10384616 1.1538461
0.28846154 0.10384616 1.1538461
0.29423076 0.10384616 1.1538461
0.30291262 0.10485437 1.1650486
0.30873787 0.10485437 1.1650486
0.3145631 0.10485437 1.1650486
0.32038835 0.10485437 1.1650486
0.336 0.108 1.2
0.34897959 0.11020408 1.2244898
0.35510203 0.11020408 1.2244898
0.3612245 0.11020408 1.2244898
-0.30681819 0.12954545 1.3636364
-0.30000001 0.12954545 1.3636364
-0.29318181 0.12954545 1.3636364
-0.28636363 0.12954545 1.3636364
-0.27954546 0.12954545 1.3636364
-0.26666668 0.12666667 1.3333334
-0.25999999 0.12666667 1.3333334
-0.25333333 0.12666667 1.3333334
-0.24666667 0.12666667 1.3333334
-0.23999999 0.12666667 1.3333334
-0.23333333 0.12666667 1.3333334
-0.22666667 0.12666667 1.3333334
-0.21758242 0.12527473 1.3186814
-0.21098901 0.12527473 1.3186814
-0.20439561 0.12527473 1.3186814
-0.1978022 0.12527473 1.3186814
-0.19120879 0.12527473 1.3186814
-0.18461539 0.12527473 1.3186814
-0.17802198 0.12527473 1.3186814
-0.17142858 0.12527473 1.3186814
-0.16666667 0.12666667 1.3333334
-0.16 0.12666667 1.3333334
-0.15164836 0.12527473 1.3186814
-0.14666666 0.12666667 1.3333334
-0.14 0.12666667 1.3333334
-0.13333334 0.12666667 1.3333334
-0.12666667 0.12666667 1.3333334
-0.12 0.12666667 1.3333334
-0.11333334 0.12666667 1.3333334
-0.10786517 0.12808989 1.3483146
-0.10112359 0.12808989 1.3483146
-0.094382025 0.12808989 1.3483146
-0.087640449 0.12808989 1.3483146
-0.057391305 0.099130437 1.0434783
-0.03652174 0.099130437 1.0434783
-0.031578947 0.1 1.0526316
-0.02631579 0.1 1.0526316
-0.021052632 0.1 1.0526316
-0.015789473 0.1 1.0526316
-0.010909091 0.10363636 1.0909091
-0.0059405942 0.11287129 1.1881188
0 0.11287129 1.1881188
0.0057692309 0.10961539 1.1538461
0.011538462 0.10961539 1.1538461
0.016071429 0.10178571 1.0714285
0.021428572 0.10178571 1.0714285
0.027272727 0.10363636 1.0909091
0.032727271 0.10363636 1.0909091
0.038181819 0.10363636 1.0909091
0.043636363 0.10363636 1.0909091
0.05046729 0.10654206 1.1214954
0.056074765 0.10654206 1.1214954
0.061682243 0.10654206 1.1214954
0.06666667 0.10555556 1.1111112
0.072222225 0.10555556 1.1111112
0.077777781 0.10555556 1.1111112
0.083333336 0.10555556 1.1111112
0.088888891 0.10555556 1.1111112
0.094444446 0.10555556 1.1111112
0.10093458 0.10654206 1.1214954
0.10555556 0.10555556 1.1111112
0.11111111 0.10555556 1.1111112
0.11666667 0.10555556 1.1111112
0.12222222 0.10555556 1.1111112
0.12777779 0.10555556 1.1111112
0.13457943 0.10654206 1.1214954
0.14018692 0.10654206 1.1214954
0.14444445 0.10555556 1.1111112
0.15000001 0.10555556 1.1111112
0.15700935 0.10654206 1.1214954
0.16261682 0.10654206 1.1214954
0.1682243 0.10654206 1.1214954
0.17383178 0.10654206 1.1214954
0.17943925 0.10654206 1.1214954
0.18504673 0.10654206 1.1214954
0.1906542 0.10654206 1.1214954
0.19626169 0.10654206 1.1214954
0.20377359 0.10754717 1.1320754
0.20943396 0.10754717 1.1320754
0.21509434 0.10754717 1.1320754
0.22075471 0.10754717 1.1320754
0.2264151 0.10754717 1.1320754
0.23428571 0.10857143 1.1428572
0.23773585 0.10754717 1.1320754
0.24339622 0.10754717 1.1320754
0.24905661 0.10754717 1.1320754
0.25714287 0.10857143 1.1428572
0.26538461 0.10961539 1.1538461
0.27115384 0.10961539 1.1538461
0.27961165 0.11067961 1.1650486
0.2854369 0.11067961 1.1650486
0.29126215 0.11067961 1.1650486
0.29708737 0.11067961 1.1650486
0.30291262 0.11067961 1.1650486
0.30873787 0.11067961 1.1650486
0.3145631 0.11067961 1.1650486
0.32038835 0.11067961 1.1650486
0.336 0.114 1.2
0.34897959 0.11632653 1.2244898
0.35510203 0.11632653 1.2244898
0.3612245 0.11632653 1.2244898
-0.29318181 0.13636364 1.3636364
-0.25333333 0.13333334 1.3333334
-0.24666667 0.13333334 1.3333334
-0.23999999 0.13333334 1.3333334
-0.23333333 0.13333334 1.3333334
-0.22921348 0.13483146 1.3483146
-0.22247191 0.13483146 1.3483146
-0.21573034 0.13483146 1.3483146
-0.20666666 0.13333334 1.3333334
-0.1978022 0.13186814 1.3186814
-0.19120879 0.13186814 1.3186814
-0.18461539 0.13186814 1.3186814
-0.18202247 0.13483146 1.3483146
-0.17142858 0.13186814 1.3186814
-0.16666667 0.13333334 1.3333334
-0.16 0.13333334 1.3333334
-0.15333334 0.13333334 1.3333334
-0.14666666 0.13333334 1.3333334
-0.14 0.13333334 1.3333334
-0.13333334 0.13333334 1.3333334
-0.12666667 0.13333334 1.3333334
-0.12 0.13333334 1.3333334
-0.11333334 0.13333334 1.3333334
-0.10786517 0.13483146 1.3483146
-0.10112359 0.13483146 1.3483146
-0.094382025 0.13483146 1.3483146
-0.087640449 0.13483146 1.3483146
-0.053333335 0.13333334 1.3333334
-0.031578947 0.10526316 1.0526316
-0.02631579 0.10526316 1.0526316
-0.021052632 0.10526316 1.0526316
-0.016363636 0.10909091 1.0909091
-0.010909091 0.10909091 1.0909091
-0.0059405942 0.11881188 1.1881188
0 0.11881188 1.1881188
0.0057692309 0.11538462 1.1538461
0.011538462 0.11538462 1.1538461
0.017307693 0.11538462 1.1538461
0.022857143 0.11428571 1.1428572
0.027272727 0.10909091 1.0909091
0.032727271 0.10909091 1.0909091
0.039622642 0.11320755 1.1320754
0.04528302 0.11320755 1.1320754
0.05046729 0.11214953 1.1214954
0.056074765 0.11214953 1.1214954
0.061682243 0.11214953 1.1214954
0.067289717 0.11214953 1.1214954
0.072222225 0.11111111 1.1111112
0.078504674 0.11214953 1.1214954
0.084112152 0.11214953 1.1214954
0.088888891 0.11111111 1.1111112
0.095327102 0.11214953 1.1214954
0.10093458 0.11214953 1.1214954
0.10654206 0.11214953 1.1214954
0.11111111 0.11111111 1.1111112
0.11666667 0.11111111 1.1111112
0.12222222 0.11111111 1.1111112
0.12897196 0.11214953 1.1214954
0.13457943 0.11214953 1.1214954
0.14018692 0.11214953 1.1214954
0.14579439 0.11214953 1.1214954
0.15140186 0.11214953 1.1214954
0.15700935 0.11214953 1.1214954
0.16261682 0.11214953 1.1214954
0.1682243 0.11214953 1.1214954
0.17383178 0.11214953 1.1214954
0.17943925 0.11214953 1.1214954
0.18504673 0.11214953 1.1214954
0.1906542 0.11214953 1.1214954
0.1981132 0.11320755 1.1320754
0.20377359 0.11320755 1.1320754
0.20943396 0.11320755 1.1320754
0.21509434 0.11320755 1.1320754
0.22075471 0.11320755 1.1320754
0.22857143 0.11428571 1.1428572
0.23428571 0.11428571 1.1428572
0.23999999 0.11428571 1.1428572
0.24571429 0.11428571 1.1428572
0.25142857 0.11428571 1.1428572
0.25961539 0.11538462 1.1538461
0.26538461 0.11538462 1.1538461
0.27115384 0.11538462 1.1538461
0.27961165 0.11650486 1.1650486
0.2854369 0.11650486 1.1650486
0.29126215 0.11650486 1.1650486
0.29708737 0.11650486 1.1650486
0.30291262 0.11650486 1.1650486
0.30873787 0.11650486 1.1650486
0.3145631 0.11650486 1.1650486
0.336 0.12 1.2
0.34897959 0.12244898 1.2244898
-0.23595506 0.14157303 1.3483146
-0.22921348 0.14157303 1.3483146
-0.22247191 0.14157303 1.3483146
-0.21573034 0.14157303 1.3483146
-0.20666666 0.14 1.3333334
-0.20224719 0.14157303 1.3483146
-0.19550562 0.14157303 1.3483146
-0.18876405 0.14157303 1.3483146
-0.18202247 0.14157303 1.3483146
-0.1752809 0.14157303 1.3483146
-0.16853933 0.14157303 1.3483146
-0.16 0.14 1.3333334
-0.15505618 0.14157303 1.3483146
-0.14666666 0.14 1.3333334
-0.14157303 0.14157303 1.3483146
-0.13483146 0.14157303 1.3483146
-0.12666667 0.14 1.3333334
-0.12 0.14 1.3333334
-0.11590909 0.14318182 1.3636364
-0.10786517 0.14157303 1.3483146
-0.10112359 0.14157303 1.3483146
-0.094382025 0.14157303 1.3483146
-0.087640449 0.14157303 1.3483146
-0.081818178 0.14318182 1.3636364
-0.06666667 0.14 1.3333334
-0.059999999 0.14 1.3333334
-0.053333335 0.14 1.3333334
-0.046666667 0.14 1.3333334
-0.031578947 0.11052632 1.0526316
-0.02631579 0.11052632 1.0526316
-0.021818181 0.11454546 1.0909091
-0.016363636 0.11454546 1.0909091
-0.010909091 0.11454546 1.0909091
-0.0059405942 0.12475248 1.1881188
0 0.12475248 1.1881188
0.0057692309 0.12115385 1.1538461
0.011538462 0.12115385 1.1538461
0.017307693 0.12115385 1.1538461
0.022857143 0.12 1.1428572
0.028571429 0.12 1.1428572
0.033962265 0.11886793 1.1320754
0.039622642 0.11886793 1.1320754
0.04528302 0.11886793 1.1320754
0.050943397 0.11886793 1.1320754
0.056603774 0.11886793 1.1320754
0.061682243 0.11775701 1.1214954
0.067289717 0.11775701 1.1214954
0.072897196 0.11775701 1.1214954
0.078504674 0.11775701 1.1214954
0.084112152 0.11775701 1.1214954
0.089719623 0.11775701 1.1214954
0.095327102 0.11775701 1.1214954
0.10093458 0.11775701 1.1214954
0.10654206 0.11775701 1.1214954
0.11214953 0.11775701 1.1214954
0.11775701 0.11775701 1.1214954
0.12336449 0.11775701 1.1214954
0.12897196 0.11775701 1.1214954
0.13457943 0.11775701 1.1214954
0.14018692 0.11775701 1.1214954
0.14579439 0.11775701 1.1214954
0.15140186 0.11775701 1.1214954
0.15700935 0.11775701 1.1214954
0.16261682 0.11775701 1.1214954
0.1682243 0.11775701 1.1214954
0.17547169 0.11886793 1.1320754
0.17943925 0.11775701 1.1214954
0.18504673 0.11775701 1.1214954
0.19245283 0.11886793 1.1320754
0.1981132 0.11886793 1.1320754
0.20571429 0.12 1.1428572
0.21142857 0.12 1.1428572
0.21509434 0.11886793 1.1320754
0.22075471 0.11886793 1.1320754
0.22857143 0.12 1.1428572
0.23428571 0.12 1.1428572
0.23999999 0.12 1.1428572
0.24807692 0.12115385 1.1538461
0.25142857 0.12 1.1428572
0.25961539 0.12115385 1.1538461
0.26538461 0.12115385 1.1538461
0.2737864 0.1223301 1.1650486
0.27961165 0.1223301 1.1650486
0.2854369 0.1223301 1.1650486
0.29411766 0.12352941 1.1764706
0.29708737 0.1223301 1.1650486
0.30291262 0.1223301 1.1650486
-0.23595506 0.14831461 1.3483146
-0.22921348 0.14831461 1.3483146
-0.22247191 0.14831461 1.3483146
-0.21573034 0.14831461 1.3483146
-0.20898877 0.14831461 1.3483146
-0.20224719 0.14831461 1.3483146
-0.19550562 0.14831461 1.3483146
-0.18876405 0.14831461 1.3483146
-0.18202247 0.14831461 1.3483146
-0.1752809 0.14831461 1.3483146
-0.16853933 0.14831461 1.3483146
-0.16179775 0.14831461 1.3483146
-0.15505618 0.14831461 1.3483146
-0.14831461 0.14831461 1.3483146
-0.14157303 0.14831461 1.3483146
-0.13483146 0.14831461 1.3483146
-0.12808989 0.14831461 1.3483146
-0.12134831 0.14831461 1.3483146
-0.11590909 0.15000001 1.3636364
-0.10909091 0.15000001 1.3636364
-0.10112359 0.14831461 1.3483146
-0.095454544 0.15000001 1.3636364
-0.088636361 0.15000001 1.3636364
-0.081818178 0.15000001 1.3636364
-0.075862072 0.15172414 1.3793104
-0.06666667 0.14666666 1.3333334
-0.059999999 0.14666666 1.3333334
-0.053333335 0.14666666 1.3333334
-0.046666667 0.14666666 1.3333334
-0.039999999 0.14666666 1.3333334
-0.027272727 0.12 1.0909091
-0.021818181 0.12 1.0909091
-0.018181818 0.13333334 1.2121212
-0.012 0.132 1.2
-0.0060000001 0.132 1.2
0 0.132 1.2
0.0060000001 0.132 1.2
0.011538462 0.12692308 1.1538461
0.017307693 0.12692308 1.1538461
0.023076924 0.12692308 1.1538461
0.028846154 0.12692308 1.1538461
0.034285713 0.12571429 1.1428572
0.039622642 0.1245283 1.1320754
0.04528302 0.1245283 1.1320754
0.050943397 0.1245283 1.1320754
0.056603774 0.1245283 1.1320754
0.062264152 0.1245283 1.1320754
0.067289717 0.12336449 1.1214954
0.073584907 0.1245283 1.1320754
0.079245284 0.1245283 1.1320754
0.084112152 0.12336449 1.1214954
0.089719623 0.12336449 1.1214954
0.095327102 0.12336449 1.1214954
0.10093458 0.12336449 1.1214954
0.10654206 0.12336449 1.1214954
0.11214953 0.12336449 1.1214954
0.11775701 0.12336449 1.1214954
0.12336449 0.12336449 1.1214954
0.12897196 0.12336449 1.1214954
0.13457943 0.12336449 1.1214954
0.14018692 0.12336449 1.1214954
0.14579439 0.12336449 1.1214954
0.15140186 0.12336449 1.1214954
0.15700935 0.12336449 1.1214954
0.16261682 0.12336449 1.1214954
0.16981132 0.1245283 1.1320754
0.17547169 0.1245283 1.1320754
0.18285714 0.12571429 1.1428572
0.18679245 0.1245283 1.1320754
0.19245283 0.1245283 1.1320754
0.2 0.12571429 1.1428572
0.20571429 0.12571429 1.1428572
0.21142857 0.12571429 1.1428572
0.21714285 0.12571429 1.1428572
0.22075471 0.1245283 1.1320754
0.23076923 0.12692308 1.1538461
0.23653845 0.12692308 1.1538461
0.24230769 0.12692308 1.1538461
0.24807692 0.12692308 1.1538461
0.25631067 0.12815534 1.1650486
0.26213592 0.12815534 1.1650486
0.26796117 0.12815534 1.1650486
0.2737864 0.12815534 1.1650486
0.27961165 0.12815534 1.1650486
0.28823531 0.12941177 1.1764706
0.29411766 0.12941177 1.1764706
0.30000001 0.12941177 1.1764706
0.30588236 0.12941177 1.1764706
-0.22247191 0.15505618 1.3483146
-0.21573034 0.15505618 1.3483146
-0.20898877 0.15505618 1.3483146
-0.20224719 0.15505618 1.3483146
-0.19550562 0.15505618 1.3483146
-0.18876405 0.15505618 1.3483146
-0.18202247 0.15505618 1.3483146
-0.1752809 0.15505618 1.3483146
-0.16853933 0.15505618 1.3483146
-0.16179775 0.15505618 1.3483146
-0.15505618 0.15505618 1.3483146
-0.14831461 0.15505618 1.3483146
-0.14157303 0.15505618 1.3483146
-0.13483146 0.15505618 1.3483146
-0.12808989 0.15505618 1.3483146
-0.12272727 0.15681818 1.3636364
-0.11590909 0.15681818 1.3636364
-0.10909091 0.15681818 1.3636364
-0.10227273 0.15681818 1.3636364
-0.095454544 0.15681818 1.3636364
-0.088636361 0.15681818 1.3636364
-0.081818178 0.15681818 1.3636364
-0.075862072 0.15862069 1.3793104
-0.06666667 0.15333334 1.3333334
-0.059999999 0.15333334 1.3333334
-0.053333335 0.15333334 1.3333334
-0.046666667 0.15333334 1.3333334
-0.039999999 0.15333334 1.3333334
-0.031914894 0.14680851 1.2765957
-0.024242423 0.13939394 1.2121212
-0.018181818 0.13939394 1.2121212
-0.012121212 0.13939394 1.2121212
-0.0060000001 0.138 1.2
0 0.138 1.2
0.0060000001 0.138 1.2
0.011881188 0.13663366 1.1881188
0.017307693 0.13269231 1.1538461
0.023076924 0.13269231 1.1538461
0.028846154 0.13269231 1.1538461
0.034285713 0.13142857 1.1428572
0.039999999 0.13142857 1.1428572
0.045714285 0.13142857 1.1428572
0.051428571 0.13142857 1.1428572
0.056603774 0.13018867 1.1320754
0.062264152 0.13018867 1.1320754
0.067924529 0.13018867 1.1320754
0.073584907 0.13018867 1.1320754
0.079245284 0.13018867 1.1320754
0.084112152 0.12897196 1.1214954
0.090566039 0.13018867 1.1320754
0.096226417 0.13018867 1.1320754
0.10188679 0.13018867 1.1320754
0.10654206 0.12897196 1.1214954
0.11214953 0.12897196 1.1214954
0.11775701 0.12897196 1.1214954
0.12336449 0.12897196 1.1214954
0.13142857 0.13142857 1.1428572
0.13457943 0.12897196 1.1214954
0.14018692 0.12897196 1.1214954
0.14857143 0.13142857 1.1428572
0.15428571 0.13142857 1.1428572
0.16 0.13142857 1.1428572
0.16571428 0.13142857 1.1428572
0.16981132 0.13018867 1.1320754
0.17547169 0.13018867 1.1320754
0.18285714 0.13142857 1.1428572
0.18857142 0.13142857 1.1428572
0.19615385 0.13269231 1.1538461
0.20192307 0.13269231 1.1538461
0.20571429 0.13142857 1.1428572
0.21346153 0.13269231 1.1538461
0.21923077 0.13269231 1.1538461
0.22718446 0.13398059 1.1650486
0.23076923 0.13269231 1.1538461
0.23653845 0.13269231 1.1538461
0.24230769 0.13269231 1.1538461
0.25294119 0.13529412 1.1764706
0.25882354 0.13529412 1.1764706
0.26213592 0.13398059 1.1650486
0.26796117 0.13398059 1.1650486
0.2737864 0.13398059 1.1650486
0.28235295 0.13529412 1.1764706
0.28823531 0.13529412 1.1764706
0.29411766 0.13529412 1.1764706
0.30000001 0.13529412 1.1764706
-0.20224719 0.16179775 1.3483146
-0.19550562 0.16179775 1.3483146
-0.18876405 0.16179775 1.3483146
-0.18202247 0.16179775 1.3483146
-0.1752809 0.16179775 1.3483146
-0.16853933 0.16179775 1.3483146
-0.16744186 0.16744186 1.3953488
-0.16046512 0.16744186 1.3953488
-0.15348837 0.16744186 1.3953488
-0.14651163 0.16744186 1.3953488
-0.13483146 0.16179775 1.3483146
-0.12808989 0.16179775 1.3483146
-0.12272727 0.16363636 1.3636364
-0.11590909 0.16363636 1.3636364
-0.10909091 0.16363636 1.3636364
-0.10227273 0.16363636 1.3636364
-0.095454544 0.16363636 1.3636364
-0.088636361 0.16363636 1.3636364
-0.08275862 0.16551724 1.3793104
-0.075862072 0.16551724 1.3793104
-0.068965517 0.16551724 1.3793104
-0.059999999 0.16 1.3333334
-0.053333335 0.16 1.3333334
-0.046666667 0.16 1.3333334
-0.038709678 0.15483871 1.2903225
-0.031914894 0.15319149 1.2765957
-0.025531914 0.15319149 1.2765957
-0.018181818 0.14545454 1.2121212
-0.012121212 0.14545454 1.2121212
-0.0060606059 0.14545454 1.2121212
0 0.14399999 1.2
0.0060000001 0.14399999 1.2
0.011881188 0.14257425 1.1881188
0.01764706 0.14117648 1.1764706
0.02330097 0.13980582 1.1650486
0.029126214 0.13980582 1.1650486
0.034951456 0.13980582 1.1650486
0.039999999 0.13714285 1.1428572
0.046153847 0.13846155 1.1538461
0.051428571 0.13714285 1.1428572
0.057142857 0.13714285 1.1428572
0.062264152 0.13584906 1.1320754
0.068571426 0.13714285 1.1428572
0.074285716 0.13714285 1.1428572
0.079245284 0.13584906 1.1320754
0.085714288 0.13714285 1.1428572
0.090566039 0.13584906 1.1320754
0.09714286 0.13714285 1.1428572
0.10188679 0.13584906 1.1320754
0.10857143 0.13714285 1.1428572
0.11428571 0.13714285 1.1428572
0.11775701 0.13457943 1.1214954
0.12571429 0.13714285 1.1428572
0.13142857 0.13714285 1.1428572
0.13714285 0.13714285 1.1428572
0.14285715 0.13714285 1.1428572
0.14857143 0.13714285 1.1428572
0.15428571 0.13714285 1.1428572
0.16 0.13714285 1.1428572
0.16571428 0.13714285 1.1428572
0.17142858 0.13714285 1.1428572
0.17547169 0.13584906 1.1320754
0.18285714 0.13714285 1.1428572
0.19038461 0.13846155 1.1538461
0.19615385 0.13846155 1.1538461
0.20192307 0.13846155 1.1538461
0.20769231 0.13846155 1.1538461
0.21346153 0.13846155 1.1538461
0.22135922 0.13980582 1.1650486
0.22718446 0.13980582 1.1650486
0.23300971 0.13980582 1.1650486
0.23653845 0.13846155 1.1538461
0.24705882 0.14117648 1.1764706
0.25294119 0.14117648 1.1764706
0.25882354 0.14117648 1.1764706
0.2647059 0.14117648 1.1764706
0.26796117 0.13980582 1.1650486
0.2737864 0.13980582 1.1650486
0.28235295 0.14117648 1.1764706
0.28823531 0.14117648 1.1764706
0.29411766 0.14117648 1.1764706
0.30000001 0.14117648 1.1764706
-0.26086956 0.2173913 1.7391304
-0.2521739 0.2173913 1.7391304
-0.24347825 0.2173913 1.7391304
-0.18202247 0.16853933 1.3483146
-0.1752809 0.16853933 1.3483146
-0.1744186 0.1744186 1.3953488
-0.16744186 0.1744186 1.3953488
-0.16046512 0.1744186 1.3953488
-0.15348837 0.1744186 1.3953488
-0.14651163 0.1744186 1.3953488
-0.13953489 0.1744186 1.3953488
-0.12954545 0.17045455 1.3636364
-0.12272727 0.17045455 1.3636364
-0.11590909 0.17045455 1.3636364
-0.10909091 0.17045455 1.3636364
-0.10227273 0.17045455 1.3636364
-0.095454544 0.17045455 1.3636364
-0.089655176 0.1724138 1.3793104
-0.08275862 0.1724138 1.3793104
-0.075862072 0.1724138 1.3793104
-0.068965517 0.1724138 1.3793104
-0.062068965 0.1724138 1.3793104
-0.053333335 0.16666667 1.3333334
-0.045161292 0.16129032 1.2903225
-0.038709678 0.16129032 1.2903225
-0.031914894 0.15957446 1.2765957
-0.025531914 0.15957446 1.2765957
-0.018367346 0.15306123 1.2244898
-0.012244898 0.15306123 1.2244898
-0.0060606059 0.15151516 1.2121212
0 0.15000001 1.2
0.0059405942 0.14851485 1.1881188
0.011881188 0.14851485 1.1881188
0.01764706 0.14705883 1.1764706
0.023529412 0.14705883 1.1764706
0.029126214 0.14563107 1.1650486
0.034951456 0.14563107 1.1650486
0.040384617 0.14423077 1.1538461
0.046153847 0.14423077 1.1538461
0.051923078 0.14423077 1.1538461
0.057142857 0.14285715 1.1428572
0.062857144 0.14285715 1.1428572
0.068571426 0.14285715 1.1428572
0.074285716 0.14285715 1.1428572
0.079999998 0.14285715 1.1428572
0.085714288 0.14285715 1.1428572
0.09142857 0.14285715 1.1428572
0.09714286 0.14285715 1.1428572
0.10285714 0.14285715 1.1428572
0.10857143 0.14285715 1.1428572
0.11428571 0.14285715 1.1428572
0.12 0.14285715 1.1428572
0.12692308 0.14423077 1.1538461
0.13142857 0.14285715 1.1428572
0.13714285 0.14285715 1.1428572
0.14285715 0.14285715 1.1428572
0.14857143 0.14285715 1.1428572
0.15428571 0.14285715 1.1428572
0.16 0.14285715 1.1428572
0.16571428 0.14285715 1.1428572
0.17142858 0.14285715 1.1428572
0.18058252 0.14563107 1.1650486
0.18640776 0.14563107 1.1650486
0.19038461 0.14423077 1.1538461
0.2 0.14705883 1.1764706
0.20588236 0.14705883 1.1764706
0.21600001 0.15000001 1.2
0.222 0.15000001 1.2
0.22135922 0.14563107 1.1650486
0.22718446 0.14563107 1.1650486
0.23300971 0.14563107 1.1650486
0.23883495 0.14563107 1.1650486
0.24705882 0.14705883 1.1764706
0.25294119 0.14705883 1.1764706
0.25882354 0.14705883 1.1764706
0.2647059 0.14705883 1.1764706
0.27058825 0.14705883 1.1764706
0.28823531 0.14705883 1.1764706
-0.27826086 0.22608696 1.7391304
-0.26956522 0.22608696 1.7391304
-0.26086956 0.22608696 1.7391304
-0.2521739 0.22608696 1.7391304
-0.24347825 0.22608696 1.7391304
-0.23478261 0.22608696 1.7391304
-0.22608696 0.22608696 1.7391304
-0.1744186 0.18139535 1.3953488
-0.16744186 0.18139535 1.3953488
-0.16046512 0.18139535 1.3953488
-0.15348837 0.18139535 1.3953488
-0.14651163 0.18139535 1.3953488
-0.11590909 0.17727272 1.3636364
-0.095454544 0.17727272 1.3636364
-0.089655176 0.17931035 1.3793104
-0.08275862 0.17931035 1.3793104
-0.075862072 0.17931035 1.3793104
-0.068965517 0.17931035 1.3793104
-0.062068965 0.17931035 1.3793104
-0.051612902 0.16774194 1.2903225
-0.045161292 0.16774194 1.2903225
-0.038709678 0.16774194 1.2903225
-0.031914894 0.16595745 1.2765957
-0.025 0.16249999 1.25
-0.018750001 0.16249999 1.25
-0.012244898 0.15918367 1.2244898
-0.0060606059 0.15757576 1.2121212
0 0.15757576 1.2121212
0.0060606059 0.15757576 1.2121212
0.011881188 0.15445544 1.1881188
0.017821781 0.15445544 1.1881188
0.023529412 0.15294118 1.1764706
0.029411765 0.15294118 1.1764706
0.034951456 0.15145631 1.1650486
0.0407767 0.15145631 1.1650486
0.04660194 0.15145631 1.1650486
0.052427184 0.15145631 1.1650486
0.058252428 0.15145631 1.1650486
0.062857144 0.14857143 1.1428572
0.069230773 0.15000001 1.1538461
0.075000003 0.15000001 1.1538461
0.079999998 0.14857143 1.1428572
0.085714288 0.14857143 1.1428572
0.09142857 0.14857143 1.1428572
0.09714286 0.14857143 1.1428572
0.10285714 0.14857143 1.1428572
0.10857143 0.14857143 1.1428572
0.11428571 0.14857143 1.1428572
0.12 0.14857143 1.1428572
0.12692308 0.15000001 1.1538461
0.13269231 0.15000001 1.1538461
0.13714285 0.14857143 1.1428572
0.14563107 0.15145631 1.1650486
0.15145631 0.15145631 1.1650486
0.15728155 0.15145631 1.1650486
0.1631068 0.15145631 1.1650486
0.16893204 0.15145631 1.1650486
0.17475729 0.15145631 1.1650486
0.18058252 0.15145631 1.1650486
0.18640776 0.15145631 1.1650486
0.19223301 0.15145631 1.1650486
0.2 0.15294118 1.1764706
0.20999999 0.156 1.2
0.21600001 0.156 1.2
0.222 0.156 1.2
0.228 0.156 1.2
0.23636363 0.15757576 1.2121212
0.24242425 0.15757576 1.2121212
0.24848485 0.15757576 1.2121212
0.25979382 0.16082475 1.2371134
0.26597938 0.16082475 1.2371134
0.27216494 0.16082475 1.2371134
0.2783505 0.16082475 1.2371134
-0.27826086 0.23478261 1.7391304
-0.26956522 0.23478261 1.7391304
-0.26086956 0.23478261 1.7391304
-0.2521739 0.23478261 1.7391304
-0.24347825 0.23478261 1.7391304
-0.23478261 0.23478261 1.7391304
-0.22608696 0.23478261 1.7391304
-0.1744186 0.18837209 1.3953488
-0.16744186 0.18837209 1.3953488
-0.16046512 0.18837209 1.3953488
-0.15348837 0.18837209 1.3953488
-0.14651163 0.18837209 1.3953488
-0.089655176 0.18620689 1.3793104
-0.08275862 0.18620689 1.3793104
-0.075862072 0.18620689 1.3793104
-0.068965517 0.18620689 1.3793104
-0.062068965 0.18620689 1.3793104
-0.051612902 0.17419355 1.2903225
-0.045161292 0.17419355 1.2903225
-0.038709678 0.17419355 1.2903225
-0.031914894 0.17234042 1.2765957
-0.025 0.16875 1.25
-0.018750001 0.16875 1.25
-0.0125 0.16875 1.25
-0.0060606059 0.16363636 1.2121212
0 0.16363636 1.2121212
0.0060606059 0.16363636 1.2121212
0.011881188 0.16039604 1.1881188
0.017821781 0.16039604 1.1881188
0.023529412 0.15882353 1.1764706
0.029411765 0.15882353 1.1764706
0.034951456 0.15728155 1.1650486
0.041176472 0.15882353 1.1764706
0.04660194 0.15728155 1.1650486
0.052427184 0.15728155 1.1650486
0.058252428 0.15728155 1.1650486
0.064077668 0.15728155 1.1650486
0.069230773 0.15576923 1.1538461
0.075000003 0.15576923 1.1538461
0.0815534 0.15728155 1.1650486
0.087378643 0.15728155 1.1650486
0.092307694 0.15576923 1.1538461
0.098076925 0.15576923 1.1538461
0.10285714 0.15428571 1.1428572
0.10961539 0.15576923 1.1538461
0.11428571 0.15428571 1.1428572
0.12 0.15428571 1.1428572
0.12692308 0.15576923 1.1538461
0.13269231 0.15576923 1.1538461
0.13980582 0.15728155 1.1650486
0.14563107 0.15728155 1.1650486
0.15145631 0.15728155 1.1650486
0.15728155 0.15728155 1.1650486
0.16470589 0.15882353 1.1764706
0.17058824 0.15882353 1.1764706
0.17475729 0.15728155 1.1650486
0.18235295 0.15882353 1.1764706
0.1882353 0.15882353 1.1764706
0.19411765 0.15882353 1.1764706
0.204 0.162 1.2
0.20999999 0.162 1.2
0.21600001 0.162 1.2
0.222 0.162 1.2
0.23030303 0.16363636 1.2121212
0.23636363 0.16363636 1.2121212
0.24242425 0.16363636 1.2121212
0.24848485 0.16363636 1.2121212
0.25979382 0.16701031 1.2371134
0.26597938 0.16701031 1.2371134
0.27216494 0.16701031 1.2371134
0.2783505 0.16701031 1.2371134
0.28453609 0.16701031 1.2371134
-0.28695652 0.24347825 1.7391304
-0.27826086 0.24347825 1.7391304
-0.26956522 0.24347825 1.7391304
-0.26086956 0.24347825 1.7391304
-0.2521739 0.24347825 1.7391304
-0.24347825 0.24347825 1.7391304
-0.23478261 0.24347825 1.7391304
-0.22608696 0.24347825 1.7391304
-0.2173913 0.24347825 1.7391304
-0.16046512 0.19534884 1.3953488
-0.075862072 0.19310345 1.3793104
-0.038709678 0.18064517 1.2903225
-0.03125 0.175 1.25
-0.025 0.175 1.25
-0.018750001 0.175 1.25
-0.0125 0.175 1.25
-0.0062500001 0.175 1.25
0 0.16969697 1.2121212
0.0060000001 0.168 1.2
0.012 0.168 1.2
0.017999999 0.168 1.2
0.024 0.168 1.2
0.029702971 0.16633664 1.1881188
0.035294119 0.16470589 1.1764706
0.041176472 0.16470589 1.1764706
0.047058824 0.16470589 1.1764706
0.052427184 0.1631068 1.1650486
0.058252428 0.1631068 1.1650486
0.064077668 0.1631068 1.1650486
0.069902912 0.1631068 1.1650486
0.075728156 0.1631068 1.1650486
0.0815534 0.1631068 1.1650486
0.087378643 0.1631068 1.1650486
0.092307694 0.16153847 1.1538461
0.098076925 0.16153847 1.1538461
0.10384616 0.16153847 1.1538461
0.10961539 0.16153847 1.1538461
0.11538462 0.16153847 1.1538461
0.1223301 0.1631068 1.1650486
0.12815534 0.1631068 1.1650486
0.13529412 0.16470589 1.1764706
0.14117648 0.16470589 1.1764706
0.14705883 0.16470589 1.1764706
0.15294118 0.16470589 1.1764706
0.15882353 0.16470589 1.1764706
0.16470589 0.16470589 1.1764706
0.17058824 0.16470589 1.1764706
0.18000001 0.168 1.2
0.18235295 0.16470589 1.1764706
0.192 0.168 1.2
0.198 0.168 1.2
0.204 0.168 1.2
0.20999999 0.168 1.2
0.21600001 0.168 1.2
0.22424242 0.16969697 1.2121212
0.23030303 0.16969697 1.2121212
0.24375001 0.175 1.25
0.25 0.175 1.25
0.24848485 0.16969697 1.2121212
0.25979382 0.17319588 1.2371134
0.26597938 0.17319588 1.2371134
0.27216494 0.17319588 1.2371134
0.2783505 0.17319588 1.2371134
-0.28695652 0.2521739 1.7391304
-0.27826086 0.2521739 1.7391304
-0.26956522 0.2521739 1.7391304
-0.26086956 0.2521739 1.7391304
-0.2521739 0.2521739 1.7391304
-0.24347825 0.2521739 1.7391304
-0.23478261 0.2521739 1.7391304
-0.22608696 0.2521739 1.7391304
-0.025 0.18125001 1.25
-0.018750001 0.18125001 1.25
-0.0125 0.18125001 1.25
-0.0062500001 0.18125001 1.25
0 0.17938145 1.2371134
0.006185567 0.17938145 1.2371134
0.012 0.17399999 1.2
0.017999999 0.17399999 1.2
0.024 0.17399999 1.2
0.029702971 0.17227723 1.1881188
0.035643563 0.17227723 1.1881188
0.04158416 0.17227723 1.1881188
0.047524754 0.17227723 1.1881188
0.052941177 0.17058824 1.1764706
0.058252428 0.16893204 1.1650486
0.064077668 0.16893204 1.1650486
0.069902912 0.16893204 1.1650486
0.076470591 0.17058824 1.1764706
0.0815534 0.16893204 1.1650486
0.087378643 0.16893204 1.1650486
0.092307694 0.16730769 1.1538461
0.098076925 0.16730769 1.1538461
0.10588235 0.17058824 1.1764706
0.10961539 0.16730769 1.1538461
0.11538462 0.16730769 1.1538461
0.1223301 0.16893204 1.1650486
0.12941177 0.17058824 1.1764706
0.13529412 0.17058824 1.1764706
0.14117648 0.17058824 1.1764706
0.14705883 0.17058824 1.1764706
0.15294118 0.17058824 1.1764706
0.16039604 0.17227723 1.1881188
0.16633664 0.17227723 1.1881188
0.17399999 0.17399999 1.2
0.18000001 0.17399999 1.2
0.186 0.17399999 1.2
0.192 0.17399999 1.2
0.198 0.17399999 1.2
0.21030928 0.17938145 1.2371134
0.21649484 0.17938145 1.2371134
0.22499999 0.18125001 1.25
0.23125 0.18125001 1.25
0.2375 0.18125001 1.25
0.24375001 0.18125001 1.25
0.25 0.18125001 1.25
0.25624999 0.18125001 1.25
0.25979382 0.17938145 1.2371134
0.26597938 0.17938145 1.2371134
0.27216494 0.17938145 1.2371134
0.2783505 0.17938145 1.2371134
-0.30434781 0.26086956 1.7391304
-0.29565218 0.26086956 1.7391304
-0.28695652 0.26086956 1.7391304
-0.27826086 0.26086956 1.7391304
-0.26956522 0.26086956 1.7391304
-0.26086956 0.26086956 1.7391304
-0.2521739 0.26086956 1.7391304
-0.24347825 0.26086956 1.7391304
-0.23478261 0.26086956 1.7391304
-0.22608696 0.26086956 1.7391304
-0.025 0.1875 1.25
-0.018750001 0.1875 1.25
-0.0125 0.1875 1.25
-0.006185567 0.18556701 1.2371134
0 0.18556701 1.2371134
0.006185567 0.18556701 1.2371134
0.012244898 0.18367347 1.2244898
0.017999999 0.18000001 1.2
0.024 0.18000001 1.2
0.029702971 0.17821783 1.1881188
0.035643563 0.17821783 1.1881188
0.04158416 0.17821783 1.1881188
0.047524754 0.17821783 1.1881188
0.052941177 0.17647059 1.1764706
0.05882353 0.17647059 1.1764706
0.064077668 0.17475729 1.1650486
0.070588239 0.17647059 1.1764706
0.076470591 0.17647059 1.1764706
0.082352944 0.17647059 1.1764706
0.088235296 0.17647059 1.1764706
0.095049508 0.17821783 1.1881188
0.1009901 0.17821783 1.1881188
0.10588235 0.17647059 1.1764706
0.11176471 0.17647059 1.1764706
0.11881188 0.17821783 1.1881188
0.12475248 0.17821783 1.1881188
0.12941177 0.17647059 1.1764706
0.13663366 0.17821783 1.1881188
0.14117648 0.17647059 1.1764706
0.14851485 0.17821783 1.1881188
0.15445544 0.17821783 1.1881188
0.16039604 0.17821783 1.1881188
0.168 0.18000001 1.2
0.17399999 0.18000001 1.2
0.18000001 0.18000001 1.2
0.18787879 0.18181819 1.2121212
0.192 0.18000001 1.2
0.20412371 0.18556701 1.2371134
0.21030928 0.18556701 1.2371134
0.21649484 0.18556701 1.2371134
0.22499999 0.1875 1.25
0.23125 0.1875 1.25
0.2375 0.1875 1.25
0.24375001 0.1875 1.25
0.25 0.1875 1.25
0.25624999 0.1875 1.25
0.26597938 0.18556701 1.2371134
-0.31304348 0.26956522 1.7391304
-0.30434781 0.26956522 1.7391304
-0.29565218 0.26956522 1.7391304
-0.28695652 0.26956522 1.7391304
-0.27826086 0.26956522 1.7391304
-0.26956522 0.26956522 1.7391304
-0.26086956 0.26956522 1.7391304
-0.2521739 0.26956522 1.7391304
-0.24347825 0.26956522 1.7391304
-0.23478261 0.26956522 1.7391304
-0.22608696 0.26956522 1.7391304
-0.2173913 0.26956522 1.7391304
-0.012371134 0.19175258 1.2371134
-0.006185567 0.19175258 1.2371134
0 0.19175258 1.2371134
0.006185567 0.19175258 1.2371134
0.012244898 0.18979591 1.2244898
0.018367346 0.18979591 1.2244898
0.024242423 0.18787879 1.2121212
0.030303031 0.18787879 1.2121212
0.036363635 0.18787879 1.2121212
0.04158416 0.18415841 1.1881188
0.047524754 0.18415841 1.1881188
0.053465348 0.18415841 1.1881188
0.059405942 0.18415841 1.1881188
0.064077668 0.18058252 1.1650486
0.070588239 0.18235295 1.1764706
0.076470591 0.18235295 1.1764706
0.082352944 0.18235295 1.1764706
0.089108914 0.18415841 1.1881188
0.095049508 0.18415841 1.1881188
0.1009901 0.18415841 1.1881188
0.1069307 0.18415841 1.1881188
0.114 0.186 1.2
0.11881188 0.18415841 1.1881188
0.12475248 0.18415841 1.1881188
0.132 0.186 1.2
0.13663366 0.18415841 1.1881188
0.14693877 0.18979591 1.2244898
0.14851485 0.18415841 1.1881188
0.15445544 0.18415841 1.1881188
0.16039604 0.18415841 1.1881188
0.168 0.186 1.2
0.17399999 0.186 1.2
0.18000001 0.186 1.2
0.18787879 0.18787879 1.2121212
0.2 0.19374999 1.25
0.20625 0.19374999 1.25
0.21030928 0.19175258 1.2371134
0.21649484 0.19175258 1.2371134
0.22499999 0.19374999 1.25
0.23125 0.19374999 1.25
0.2375 0.19374999 1.25
0.24375001 0.19374999 1.25
0.25 0.19374999 1.25
0.25624999 0.19374999 1.25
-0.31304348 0.27826086 1.7391304
-0.30434781 0.27826086 1.7391304
-0.29565218 0.27826086 1.7391304
-0.28695652 0.27826086 1.7391304
-0.27826086 0.27826086 1.7391304
-0.26956522 0.27826086 1.7391304
-0.26086956 0.27826086 1.7391304
-0.2521739 0.27826086 1.7391304
-0.24347825 0.27826086 1.7391304
-0.23478261 0.27826086 1.7391304
-0.22608696 0.27826086 1.7391304
-0.22058824 0.28235295 1.7647059
-0.012371134 0.19793814 1.2371134
-0.006185567 0.19793814 1.2371134
0 0.19793814 1.2371134
0.006185567 0.19793814 1.2371134
0.012244898 0.19591837 1.2244898
0.018367346 0.19591837 1.2244898
0.024489796 0.19591837 1.2244898
0.030303031 0.19393939 1.2121212
0.036363635 0.19393939 1.2121212
0.041999999 0.192 1.2
0.047524754 0.19009902 1.1881188
0.053465348 0.19009902 1.1881188
0.059405942 0.19009902 1.1881188
0.065346532 0.19009902 1.1881188
0.071287125 0.19009902 1.1881188
0.077227719 0.19009902 1.1881188
0.08316832 0.19009902 1.1881188
0.089108914 0.19009902 1.1881188
0.096000001 0.192 1.2
0.1009901 0.19009902 1.1881188
0.108 0.192 1.2
0.114 0.192 1.2
0.12 0.192 1.2
0.12475248 0.19009902 1.1881188
0.132 0.192 1.2
0.14081633 0.19591837 1.2244898
0.14693877 0.19591837 1.2244898
0.15306123 0.19591837 1.2244898
0.15918367 0.19591837 1.2244898
0.16039604 0.19009902 1.1881188
0.168 0.192 1.2
0.17399999 0.192 1.2
0.18000001 0.192 1.2
0.19374999 0.2 1.25
0.2 0.2 1.25
0.20842105 0.20210527 1.2631578
0.21473685 0.20210527 1.2631578
0.22105263 0.20210527 1.2631578
0.22499999 0.2 1.25
0.23125 0.2 1.25
0.2375 0.2 1.25
0.24375001 0.2 1.25
-0.32173914 0.28695652 1.7391304
