# .PCD v0.7 - Point Cloud Data file format
VERSION 0.7
FIELDS x y z
SIZE 4 4 4
TYPE F F F
COUNT 1 1 1
WIDTH 1498
HEIGHT 1
VIEWPOINT 0 0 0 1 0 0 0
POINTS 1498
DATA ascii
0.12685715 0.25714287 1.9885714
0.13103448 0.25862068 2
0.13448276 0.25862068 2
0.13793103 0.25862068 2
0.14302325 0.26162791 2.0232558
0.14651163 0.26162791 2.0232558
0.15087719 0.2631579 2.0350878
0.15438597 0.2631579 2.0350878
0.15882353 0.2647059 2.0470588
0.16235293 0.2647059 2.0470588
0.16588235 0.2647059 2.0470588
0.16941176 0.2647059 2.0470588
-0.24142012 0.26982248 2.0591717
-0.23786983 0.26982248 2.0591717
-0.23431952 0.26982248 2.0591717
-0.23076923 0.26982248 2.0591717
-0.22721894 0.26982248 2.0591717
-0.21849711 0.26358381 2.0115607
-0.2150289 0.26358381 2.0115607
-0.20914286 0.26057142 1.9885714
-0.20454545 0.2590909 1.9772727
-0.2 0.25762713 1.9661016
-0.19333333 0.25333333 1.9333333
-0.19 0.25333333 1.9333333
-0.18461539 0.25054947 1.9120879
-0.17934783 0.24782608 1.8913044
-0.17608696 0.24782608 1.8913044
-0.16825397 0.24126984 1.8412699
-0.16507937 0.24126984 1.8412699
-0.16190477 0.24126984 1.8412699
-0.15873016 0.24126984 1.8412699
-0.153125 0.2375 1.8125
-0.15000001 0.2375 1.8125
-0.14536083 0.23505154 1.7938144
-0.14010152 0.23147207 1.7664975
-0.13705584 0.23147207 1.7664975
-0.13266331 0.22914574 1.7487438
-0.12964824 0.22914574 1.7487438
-0.12475248 0.22574258 1.7227722
-0.12118226 0.22463053 1.7142857
-0.11707317 0.22243902 1.697561
-0.11304348 0.22028986 1.6811594
-0.11014493 0.22028986 1.6811594
-0.10724638 0.22028986 1.6811594
-0.10188679 0.21509434 1.6415094
-0.1 0.21714285 1.6571429
-0.09714286 0.21714285 1.6571429
-0.094285712 0.21714285 1.6571429
-0.091866031 0.21818182 1.6650717
-0.088995218 0.21818182 1.6650717
-0.086538464 0.21923077 1.6730769
-0.083653845 0.21923077 1.6730769
-0.080769233 0.21923077 1.6730769
-0.077884614 0.21923077 1.6730769
-0.075362317 0.22028986 1.6811594
-0.072463766 0.22028986 1.6811594
-0.070243903 0.22243902 1.697561
-0.067317076 0.22243902 1.697561
-0.064705886 0.22352941 1.7058823
-0.061764706 0.22352941 1.7058823
-0.059113301 0.22463053 1.7142857
-0.056157634 0.22463053 1.7142857
-0.053465348 0.22574258 1.7227722
-0.050495051 0.22574258 1.7227722
-0.047524754 0.22574258 1.7227722
-0.044776119 0.22686568 1.7313433
-0.041999999 0.228 1.74
-0.039000001 0.228 1.74
-0.036180906 0.22914574 1.7487438
-0.033165827 0.22914574 1.7487438
-0.030150754 0.22914574 1.7487438
-0.027411168 0.23147207 1.7664975
-0.024365483 0.23147207 1.7664975
-0.021319797 0.23147207 1.7664975
-0.018367346 0.23265307 1.7755102
-0.015306123 0.23265307 1.7755102
-0.012244898 0.23265307 1.7755102
-0.0092307692 0.23384616 1.7846154
-0.006185567 0.23505154 1.7938144
-0.0030927835 0.23505154 1.7938144
0 0.23505154 1.7938144
0.003125 0.2375 1.8125
0.0062500001 0.2375 1.8125
0.0093750004 0.2375 1.8125
0.012565445 0.23874345 1.8219895
0.015706806 0.23874345 1.8219895
0.01904762 0.24126984 1.8412699
0.022222223 0.24126984 1.8412699
0.025396826 0.24126984 1.8412699
0.028571429 0.24126984 1.8412699
0.03208556 0.24385026 1.8609625
0.035294119 0.24385026 1.8609625
0.038502675 0.24385026 1.8609625
0.041935485 0.24516129 1.8709677
0.045161292 0.24516129 1.8709677
0.048387095 0.24516129 1.8709677
0.051891893 0.24648649 1.8810811
0.055434782 0.24782608 1.8913044
0.058695652 0.24782608 1.8913044
0.062295083 0.24918033 1.9016393
0.065573767 0.24918033 1.9016393
0.069230773 0.25054947 1.9120879
0.072928175 0.25193369 1.9226519
0.075824179 0.25054947 1.9120879
0.079558007 0.25193369 1.9226519
0.083333336 0.25333333 1.9333333
0.086666666 0.25333333 1.9333333
0.090000004 0.25333333 1.9333333
0.093854748 0.25474861 1.9441341
0.097206704 0.25474861 1.9441341
0.10055866 0.25474861 1.9441341
0.10508475 0.25762713 1.9661016
0.10847457 0.25762713 1.9661016
0.11186441 0.25762713 1.9661016
0.11657143 0.26057142 1.9885714
0.12 0.26057142 1.9885714
0.12342857 0.26057142 1.9885714
0.12685715 0.26057142 1.9885714
0.13103448 0.26206896 2
0.13448276 0.26206896 2
0.13953489 0.26511627 2.0232558
0.14302325 0.26511627 2.0232558
0.14651163 0.26511627 2.0232558
0.15087719 0.26666668 2.0350878
0.15438597 0.26666668 2.0350878
0.15882353 0.2682353 2.0470588
0.16235293 0.2682353 2.0470588
0.16588235 0.2682353 2.0470588
-0.23786983 0.27337277 2.0591717
-0.23431952 0.27337277 2.0591717
-0.23076923 0.27337277 2.0591717
-0.22456141 0.27017543 2.0350878
-0.22105263 0.27017543 2.0350878
-0.2150289 0.26705202 2.0115607
-0.20914286 0.264 1.9885714
-0.20454545 0.26249999 1.9772727
-0.2 0.26101694 1.9661016
-0.19661017 0.26101694 1.9661016
-0.19 0.25666666 1.9333333
-0.18461539 0.25384617 1.9120879
-0.18131869 0.25384617 1.9120879
-0.17802198 0.25384617 1.9120879
-0.16914894 0.24574468 1.8510638
-0.16595745 0.24574468 1.8510638
-0.16276596 0.24574468 1.8510638
-0.15957446 0.24574468 1.8510638
-0.153125 0.24062499 1.8125
-0.15000001 0.24062499 1.8125
-0.14536083 0.23814432 1.7938144
-0.14153846 0.23692308 1.7846154
-0.13705584 0.23451777 1.7664975
-0.13266331 0.23216081 1.7487438
-0.12835822 0.22985074 1.7313433
-0.12537314 0.22985074 1.7313433
-0.12118226 0.22758621 1.7142857
-0.1182266 0.22758621 1.7142857
-0.11527093 0.22758621 1.7142857
-0.11014493 0.2231884 1.6811594
-0.10724638 0.2231884 1.6811594
-0.10434783 0.2231884 1.6811594
-0.1 0.22 1.6571429
-0.09714286 0.22 1.6571429
-0.094285712 0.22 1.6571429
-0.092307694 0.22211538 1.6730769
-0.089423075 0.22211538 1.6730769
-0.086538464 0.22211538 1.6730769
-0.083653845 0.22211538 1.6730769
-0.080769233 0.22211538 1.6730769
-0.078640774 0.22427185 1.6893204
-0.076097563 0.22536585 1.697561
-0.073170729 0.22536585 1.697561
-0.070243903 0.22536585 1.697561
-0.067647062 0.22647059 1.7058823
-0.064705886 0.22647059 1.7058823
-0.062068965 0.22758621 1.7142857
-0.059113301 0.22758621 1.7142857
-0.056157634 0.22758621 1.7142857
-0.053465348 0.22871287 1.7227722
-0.050495051 0.22871287 1.7227722
-0.048 0.23100001 1.74
-0.045000002 0.23100001 1.74
-0.041999999 0.23100001 1.74
-0.039000001 0.23100001 1.74
-0.036180906 0.23216081 1.7487438
-0.033333335 0.23333333 1.7575758
-0.030456852 0.23451777 1.7664975
-0.027411168 0.23451777 1.7664975
-0.024365483 0.23451777 1.7664975
-0.021538461 0.23692308 1.7846154
-0.018461538 0.23692308 1.7846154
-0.015463918 0.23814432 1.7938144
-0.012371134 0.23814432 1.7938144
-0.0092783505 0.23814432 1.7938144
-0.006185567 0.23814432 1.7938144
-0.0031088083 0.23937824 1.8031088
0 0.23937824 1.8031088
0.0031413613 0.24188481 1.8219895
0.0062500001 0.24062499 1.8125
0.0094240839 0.24188481 1.8219895
0.012565445 0.24188481 1.8219895
0.015873017 0.24444444 1.8412699
0.01904762 0.24444444 1.8412699
0.022222223 0.24444444 1.8412699
0.025531914 0.24574468 1.8510638
0.028723404 0.24574468 1.8510638
0.031914894 0.24574468 1.8510638
0.035294119 0.24705882 1.8609625
0.038709678 0.2483871 1.8709677
0.041935485 0.2483871 1.8709677
0.045405407 0.24972972 1.8810811
0.048648648 0.24972972 1.8810811
0.051891893 0.24972972 1.8810811
0.055434782 0.25108695 1.8913044
0.059016392 0.25245902 1.9016393
0.062295083 0.25245902 1.9016393
0.065934069 0.25384617 1.9120879
0.069230773 0.25384617 1.9120879
0.072928175 0.25524861 1.9226519
0.076243095 0.25524861 1.9226519
0.079999998 0.25666666 1.9333333
0.083333336 0.25666666 1.9333333
0.087150835 0.25810057 1.9441341
0.090502791 0.25810057 1.9441341
0.093854748 0.25810057 1.9441341
0.098305084 0.26101694 1.9661016
0.10169491 0.26101694 1.9661016
0.10628571 0.264 1.9885714
0.10971428 0.264 1.9885714
0.11314286 0.264 1.9885714
0.11657143 0.264 1.9885714
0.12 0.264 1.9885714
0.12413793 0.26551723 2
0.1275862 0.26551723 2
0.13255814 0.26860467 2.0232558
0.13604651 0.26860467 2.0232558
0.13953489 0.26860467 2.0232558
0.14385965 0.27017543 2.0350878
0.14736842 0.27017543 2.0350878
0.15176471 0.2717647 2.0470588
0.15529412 0.2717647 2.0470588
0.15882353 0.2717647 2.0470588
0.16235293 0.2717647 2.0470588
0.16588235 0.2717647 2.0470588
-0.23786983 0.27692309 2.0591717
-0.23431952 0.27692309 2.0591717
-0.23076923 0.27692309 2.0591717
-0.22456141 0.2736842 2.0350878
-0.22105263 0.2736842 2.0350878
-0.21754386 0.2736842 2.0350878
-0.20914286 0.26742858 1.9885714
-0.20454545 0.26590911 1.9772727
-0.2 0.26440677 1.9661016
-0.19661017 0.26440677 1.9661016
-0.19 0.25999999 1.9333333
-0.18461539 0.25714287 1.9120879
-0.18131869 0.25714287 1.9120879
-0.17802198 0.25714287 1.9120879
-0.17472528 0.25714287 1.9120879
-0.16864865 0.25297296 1.8810811
-0.16276596 0.24893618 1.8510638
-0.15957446 0.24893618 1.8510638
-0.153125 0.24375001 1.8125
-0.15000001 0.24375001 1.8125
-0.14536083 0.24123712 1.7938144
-0.14153846 0.23999999 1.7846154
-0.13846155 0.23999999 1.7846154
-0.13538462 0.23999999 1.7846154
-0.12835822 0.23283581 1.7313433
-0.12537314 0.23283581 1.7313433
-0.12238806 0.23283581 1.7313433
-0.1182266 0.23054187 1.7142857
-0.11470588 0.22941177 1.7058823
-0.11121951 0.22829269 1.697561
-0.10724638 0.22608696 1.6811594
-0.10434783 0.22608696 1.6811594
-0.1 0.22285715 1.6571429
-0.09714286 0.22285715 1.6571429
-0.094736844 0.22392344 1.6650717
-0.092307694 0.22499999 1.6730769
-0.089423075 0.22499999 1.6730769
-0.086956523 0.22608696 1.6811594
-0.084057972 0.22608696 1.6811594
-0.08115942 0.22608696 1.6811594
-0.078640774 0.22718446 1.6893204
-0.076097563 0.22829269 1.697561
-0.073170729 0.22829269 1.697561
-0.070588239 0.22941177 1.7058823
-0.067980297 0.23054187 1.7142857
-0.065024629 0.23054187 1.7142857
-0.062068965 0.23054187 1.7142857
-0.059113301 0.23054187 1.7142857
-0.056157634 0.23054187 1.7142857
-0.053465348 0.23168316 1.7227722
-0.050999999 0.234 1.74
-0.048241206 0.23517588 1.7487438
-0.045226131 0.23517588 1.7487438
-0.041999999 0.234 1.74
-0.039393939 0.23636363 1.7575758
-0.036363635 0.23636363 1.7575758
-0.033333335 0.23636363 1.7575758
-0.030456852 0.23756345 1.7664975
-0.02755102 0.23877551 1.7755102
-0.024489796 0.23877551 1.7755102
-0.021538461 0.23999999 1.7846154
-0.018461538 0.23999999 1.7846154
-0.015463918 0.24123712 1.7938144
-0.012371134 0.24123712 1.7938144
-0.0092783505 0.24123712 1.7938144
-0.0062500001 0.24375001 1.8125
-0.003125 0.24375001 1.8125
0 0.24375001 1.8125
0.0031413613 0.24502617 1.8219895
0.0062827226 0.24502617 1.8219895
0.0094240839 0.24502617 1.8219895
0.012631579 0.24631579 1.831579
0.015789473 0.24631579 1.831579
0.01904762 0.24761905 1.8412699
0.022340426 0.24893618 1.8510638
0.025531914 0.24893618 1.8510638
0.028723404 0.24893618 1.8510638
0.03208556 0.25026739 1.8609625
0.035294119 0.25026739 1.8609625
0.038709678 0.2516129 1.8709677
0.042162161 0.25297296 1.8810811
0.045405407 0.25297296 1.8810811
0.048648648 0.25297296 1.8810811
0.052459016 0.25573769 1.9016393
0.055737704 0.25573769 1.9016393
0.059016392 0.25573769 1.9016393
0.062295083 0.25573769 1.9016393
0.065934069 0.25714287 1.9120879
0.069230773 0.25714287 1.9120879
0.072928175 0.25856355 1.9226519
0.076243095 0.25856355 1.9226519
0.079999998 0.25999999 1.9333333
0.083333336 0.25999999 1.9333333
0.087150835 0.26145253 1.9441341
0.090502791 0.26145253 1.9441341
0.094915256 0.26440677 1.9661016
0.098305084 0.26440677 1.9661016
0.10169491 0.26440677 1.9661016
0.10628571 0.26742858 1.9885714
0.10971428 0.26742858 1.9885714
0.11314286 0.26742858 1.9885714
0.11657143 0.26742858 1.9885714
0.12068965 0.26896551 2
0.12413793 0.26896551 2
0.1275862 0.26896551 2
0.13255814 0.27209303 2.0232558
0.13604651 0.27209303 2.0232558
0.13953489 0.27209303 2.0232558
0.14385965 0.2736842 2.0350878
0.14736842 0.2736842 2.0350878
0.15176471 0.27529413 2.0470588
0.15529412 0.27529413 2.0470588
0.15882353 0.27529413 2.0470588
0.16235293 0.27529413 2.0470588
-0.22807017 0.27719298 2.0350878
-0.22456141 0.27719298 2.0350878
-0.22105263 0.27719298 2.0350878
-0.21754386 0.27719298 2.0350878
-0.21034482 0.27241379 2
-0.20689656 0.27241379 2
-0.20344828 0.27241379 2
-0.2 0.27241379 2
-0.19655173 0.27241379 2
-0.1877095 0.26480448 1.9441341
-0.18131869 0.26043957 1.9120879
-0.17802198 0.26043957 1.9120879
-0.17472528 0.26043957 1.9120879
-0.16864865 0.25621623 1.8810811
-0.16540541 0.25621623 1.8810811
-0.16216215 0.25621623 1.8810811
-0.15721925 0.25347593 1.8609625
-0.15000001 0.246875 1.8125
-0.14687499 0.246875 1.8125
-0.14375 0.246875 1.8125
-0.13846155 0.24307692 1.7846154
-0.13538462 0.24307692 1.7846154
-0.13163266 0.24183674 1.7755102
-0.12537314 0.23582089 1.7313433
-0.12238806 0.23582089 1.7313433
-0.11940298 0.23582089 1.7313433
-0.11470588 0.23235294 1.7058823
-0.11121951 0.23121952 1.697561
-0.10724638 0.2289855 1.6811594
-0.10434783 0.2289855 1.6811594
-0.1 0.22571428 1.6571429
-0.09714286 0.22571428 1.6571429
-0.094736844 0.22679426 1.6650717
-0.092307694 0.22788462 1.6730769
-0.089423075 0.22788462 1.6730769
-0.086956523 0.2289855 1.6811594
-0.084057972 0.2289855 1.6811594
-0.0815534 0.23009709 1.6893204
-0.078640774 0.23009709 1.6893204
-0.076097563 0.23121952 1.697561
-0.073529415 0.23235294 1.7058823
-0.070588239 0.23235294 1.7058823
-0.068316832 0.23465346 1.7227722
-0.065024629 0.23349753 1.7142857
-0.062068965 0.23349753 1.7142857
-0.059999999 0.237 1.74
-0.057 0.237 1.74
-0.054000001 0.237 1.74
-0.050999999 0.237 1.74
-0.048 0.237 1.74
-0.045226131 0.23819095 1.7487438
-0.042211056 0.23819095 1.7487438
-0.039393939 0.23939393 1.7575758
-0.036363635 0.23939393 1.7575758
-0.033673469 0.24183674 1.7755102
-0.030612245 0.24183674 1.7755102
-0.02755102 0.24183674 1.7755102
-0.024489796 0.24183674 1.7755102
-0.021538461 0.24307692 1.7846154
-0.018556701 0.2443299 1.7938144
-0.015463918 0.2443299 1.7938144
-0.012435233 0.24559586 1.8031088
-0.0093264244 0.24559586 1.8031088
-0.0062500001 0.246875 1.8125
-0.003125 0.246875 1.8125
0 0.246875 1.8125
0.0031413613 0.24816754 1.8219895
0.0063157897 0.24947369 1.831579
0.0094736842 0.24947369 1.831579
0.012631579 0.24947369 1.831579
0.015789473 0.24947369 1.831579
0.019148936 0.25212765 1.8510638
0.022340426 0.25212765 1.8510638
0.025531914 0.25212765 1.8510638
0.029032258 0.25483871 1.8709677
0.032258064 0.25483871 1.8709677
0.035483871 0.25483871 1.8709677
0.038709678 0.25483871 1.8709677
0.042162161 0.25621623 1.8810811
0.045405407 0.25621623 1.8810811
0.049180329 0.25901639 1.9016393
0.052459016 0.25901639 1.9016393
0.055737704 0.25901639 1.9016393
0.05934066 0.26043957 1.9120879
0.062637366 0.26043957 1.9120879
0.066298343 0.26187846 1.9226519
0.069613263 0.26187846 1.9226519
0.072928175 0.26187846 1.9226519
0.076666668 0.26333332 1.9333333
0.079999998 0.26333332 1.9333333
0.084269665 0.26629212 1.9550562
0.087150835 0.26480448 1.9441341
0.090502791 0.26480448 1.9441341
0.094915256 0.26779661 1.9661016
0.098305084 0.26779661 1.9661016
0.10285714 0.27085716 1.9885714
0.10628571 0.27085716 1.9885714
0.10971428 0.27085716 1.9885714
0.1137931 0.27241379 2
0.11791907 0.27398843 2.0115607
0.12138728 0.27398843 2.0115607
0.1255814 0.27558139 2.0232558
0.12906976 0.27558139 2.0232558
0.13255814 0.27558139 2.0232558
0.13604651 0.27558139 2.0232558
0.14035088 0.27719298 2.0350878
0.14385965 0.27719298 2.0350878
0.14736842 0.27719298 2.0350878
0.15176471 0.27882352 2.0470588
0.15529412 0.27882352 2.0470588
0.15882353 0.27882352 2.0470588
0.16235293 0.27882352 2.0470588
-0.22105263 0.28070176 2.0350878
-0.21754386 0.28070176 2.0350878
-0.21034482 0.27586207 2
-0.20689656 0.27586207 2
-0.20344828 0.27586207 2
-0.2 0.27586207 2
-0.19655173 0.27586207 2
-0.1877095 0.26815644 1.9441341
-0.18435754 0.26815644 1.9441341
-0.17802198 0.26373628 1.9120879
-0.17472528 0.26373628 1.9120879
-0.16864865 0.25945947 1.8810811
-0.16540541 0.25945947 1.8810811
-0.16042781 0.25668448 1.8609625
-0.15721925 0.25668448 1.8609625
-0.1540107 0.25668448 1.8609625
-0.14687499 0.25 1.8125
-0.14375 0.25 1.8125
-0.140625 0.25 1.8125
-0.13469388 0.24489796 1.7755102
-0.13163266 0.24489796 1.7755102
-0.12857144 0.24489796 1.7755102
-0.12487309 0.24365482 1.7664975
-0.11764706 0.23529412 1.7058823
-0.11470588 0.23529412 1.7058823
-0.11176471 0.23529412 1.7058823
-0.10829268 0.23414634 1.697561
-0.10536585 0.23414634 1.697561
-0.10243902 0.23414634 1.697561
-0.098076925 0.23076923 1.6730769
-0.095192306 0.23076923 1.6730769
-0.092753626 0.23188406 1.6811594
-0.089855075 0.23188406 1.6811594
-0.087378643 0.23300971 1.6893204
-0.084466018 0.23300971 1.6893204
-0.0815534 0.23300971 1.6893204
-0.079024389 0.23414634 1.697561
-0.076097563 0.23414634 1.697561
-0.073529415 0.23529412 1.7058823
-0.070588239 0.23529412 1.7058823
-0.068316832 0.23762377 1.7227722
-0.065346532 0.23762377 1.7227722
-0.06268657 0.23880596 1.7313433
-0.059999999 0.23999999 1.74
-0.057 0.23999999 1.74
-0.054000001 0.23999999 1.74
-0.050999999 0.23999999 1.74
-0.048241206 0.24120604 1.7487438
-0.045226131 0.24120604 1.7487438
-0.042639595 0.24365482 1.7664975
-0.039593909 0.24365482 1.7664975
-0.036548223 0.24365482 1.7664975
-0.033673469 0.24489796 1.7755102
-0.030612245 0.24489796 1.7755102
-0.027692307 0.24615385 1.7846154
-0.024615385 0.24615385 1.7846154
-0.021649485 0.24742268 1.7938144
-0.018556701 0.24742268 1.7938144
-0.015463918 0.24742268 1.7938144
-0.012435233 0.24870466 1.8031088
-0.0093750004 0.25 1.8125
-0.0062500001 0.25 1.8125
-0.0031413613 0.25130889 1.8219895
0 0.25130889 1.8219895
0.0031413613 0.25130889 1.8219895
0.0063157897 0.25263157 1.831579
0.0095238099 0.25396827 1.8412699
0.012698413 0.25396827 1.8412699
0.015873017 0.25396827 1.8412699
0.019148936 0.25531915 1.8510638
0.022340426 0.25531915 1.8510638
0.025531914 0.25531915 1.8510638
0.029032258 0.25806451 1.8709677
0.032258064 0.25806451 1.8709677
0.035675675 0.25945947 1.8810811
0.03891892 0.25945947 1.8810811
0.042162161 0.25945947 1.8810811
0.045405407 0.25945947 1.8810811
0.049180329 0.26229507 1.9016393
0.052459016 0.26229507 1.9016393
0.055737704 0.26229507 1.9016393
0.05934066 0.26373628 1.9120879
0.063333333 0.26666668 1.9333333
0.066298343 0.26519337 1.9226519
0.069613263 0.26519337 1.9226519
0.073743016 0.26815644 1.9441341
0.076666668 0.26666668 1.9333333
0.080898874 0.26966292 1.9550562
0.084269665 0.26966292 1.9550562
0.088135593 0.27118644 1.9661016
0.091525421 0.27118644 1.9661016
0.094915256 0.27118644 1.9661016
0.098305084 0.27118644 1.9661016
0.10285714 0.2742857 1.9885714
0.10628571 0.2742857 1.9885714
0.11034483 0.27586207 2
0.1137931 0.27586207 2
0.11791907 0.27745664 2.0115607
0.12138728 0.27745664 2.0115607
0.1255814 0.27906978 2.0232558
0.12906976 0.27906978 2.0232558
0.13255814 0.27906978 2.0232558
0.1368421 0.28070176 2.0350878
0.14035088 0.28070176 2.0350878
0.14556213 0.28402367 2.0591717
0.14911243 0.28402367 2.0591717
0.15266272 0.28402367 2.0591717
0.15529412 0.28235295 2.0470588
-0.21754386 0.28421053 2.0350878
-0.21403509 0.28421053 2.0350878
-0.21052632 0.28421053 2.0350878
-0.20344828 0.27931035 2
-0.2 0.27931035 2
-0.19655173 0.27931035 2
-0.1877095 0.27150837 1.9441341
-0.18435754 0.27150837 1.9441341
-0.17900552 0.26850829 1.9226519
-0.17569061 0.26850829 1.9226519
-0.17237569 0.26850829 1.9226519
-0.16813187 0.26703298 1.9120879
-0.16042781 0.25989306 1.8609625
-0.15721925 0.25989306 1.8609625
-0.1540107 0.25989306 1.8609625
-0.14687499 0.25312501 1.8125
-0.14375 0.25312501 1.8125
-0.13989638 0.25181347 1.8031088
-0.13608247 0.25051546 1.7938144
-0.13163266 0.24795918 1.7755102
-0.12791878 0.24670051 1.7664975
-0.12487309 0.24670051 1.7664975
-0.12182741 0.24670051 1.7664975
-0.117 0.243 1.74
-0.11176471 0.23823529 1.7058823
-0.10829268 0.23707317 1.697561
-0.10536585 0.23707317 1.697561
-0.10243902 0.23707317 1.697561
-0.098550722 0.23478261 1.6811594
-0.095192306 0.23365384 1.6730769
-0.092753626 0.23478261 1.6811594
-0.09073171 0.23707317 1.697561
-0.087378643 0.23592234 1.6893204
-0.084466018 0.23592234 1.6893204
-0.082352944 0.23823529 1.7058823
-0.079024389 0.23707317 1.697561
-0.076847292 0.23940887 1.7142857
-0.073891625 0.23940887 1.7142857
-0.070935957 0.23940887 1.7142857
-0.068316832 0.24059406 1.7227722
-0.065671645 0.24179104 1.7313433
-0.06268657 0.24179104 1.7313433
-0.059999999 0.243 1.74
-0.057 0.243 1.74
-0.054000001 0.243 1.74
-0.05125628 0.24422111 1.7487438
-0.048241206 0.24422111 1.7487438
-0.04568528 0.24670051 1.7664975
-0.042639595 0.24670051 1.7664975
-0.039593909 0.24670051 1.7664975
-0.036734693 0.24795918 1.7755102
-0.033673469 0.24795918 1.7755102
-0.030769231 0.24923077 1.7846154
-0.027692307 0.24923077 1.7846154
-0.024615385 0.24923077 1.7846154
-0.021761658 0.25181347 1.8031088
-0.018652849 0.25181347 1.8031088
-0.015544041 0.25181347 1.8031088
-0.0125 0.25312501 1.8125
-0.0093750004 0.25312501 1.8125
-0.0062500001 0.25312501 1.8125
-0.0031413613 0.25445026 1.8219895
0 0.25445026 1.8219895
0.0031413613 0.25445026 1.8219895
0.0063492064 0.25714287 1.8412699
0.0095238099 0.25714287 1.8412699
0.012698413 0.25714287 1.8412699
0.015873017 0.25714287 1.8412699
0.019148936 0.25851065 1.8510638
0.022340426 0.25851065 1.8510638
0.025806451 0.26129031 1.8709677
0.029032258 0.26129031 1.8709677
0.032432433 0.2627027 1.8810811
0.035675675 0.2627027 1.8810811
0.039130434 0.26413044 1.8913044
0.042391304 0.26413044 1.8913044
0.045901638 0.26557377 1.9016393
0.049180329 0.26557377 1.9016393
0.052459016 0.26557377 1.9016393
0.056353591 0.26850829 1.9226519
0.059999999 0.27000001 1.9333333
0.063333333 0.27000001 1.9333333
0.06666667 0.27000001 1.9333333
0.070391059 0.27150837 1.9441341
0.073743016 0.27150837 1.9441341
0.077094972 0.27150837 1.9441341
0.080898874 0.27303371 1.9550562
0.084745765 0.27457628 1.9661016
0.088135593 0.27457628 1.9661016
0.091525421 0.27457628 1.9661016
0.095454544 0.27613637 1.9772727
0.098863639 0.27613637 1.9772727
0.10344828 0.27931035 2
0.10689655 0.27931035 2
0.11034483 0.27931035 2
0.1137931 0.27931035 2
0.11791907 0.28092486 2.0115607
0.12138728 0.28092486 2.0115607
0.1255814 0.28255814 2.0232558
0.12906976 0.28255814 2.0232558
0.13255814 0.28255814 2.0232558
0.1368421 0.28421053 2.0350878
0.14117648 0.28588235 2.0470588
0.14556213 0.28757396 2.0591717
0.14911243 0.28757396 2.0591717
0.15266272 0.28757396 2.0591717
0.15621302 0.28757396 2.0591717
-0.22105263 0.28771931 2.0350878
-0.21754386 0.28771931 2.0350878
-0.21403509 0.28771931 2.0350878
-0.21052632 0.28771931 2.0350878
-0.20701754 0.28771931 2.0350878
-0.2 0.28275862 2
-0.19655173 0.28275862 2
-0.1877095 0.27486032 1.9441341
-0.18435754 0.27486032 1.9441341
-0.18100558 0.27486032 1.9441341
-0.17569061 0.2718232 1.9226519
-0.17142858 0.27032968 1.9120879
-0.16813187 0.27032968 1.9120879
-0.16216215 0.26594594 1.8810811
-0.15721925 0.26310161 1.8609625
-0.1540107 0.26310161 1.8609625
-0.15080214 0.26310161 1.8609625
-0.14300518 0.25492227 1.8031088
-0.13989638 0.25492227 1.8031088
-0.13608247 0.25360826 1.7938144
-0.13230769 0.25230768 1.7846154
-0.12791878 0.24974619 1.7664975
-0.12487309 0.24974619 1.7664975
-0.12182741 0.24974619 1.7664975
-0.117 0.24600001 1.74
-0.11287129 0.24356435 1.7227722
-0.10990099 0.24356435 1.7227722
-0.10536585 0.23999999 1.697561
-0.10144927 0.23768117 1.6811594
-0.098550722 0.23768117 1.6811594
-0.09565217 0.23768117 1.6811594
-0.093658537 0.23999999 1.697561
-0.09073171 0.23999999 1.697561
-0.087804876 0.23999999 1.697561
-0.08529412 0.24117647 1.7058823
-0.082352944 0.24117647 1.7058823
-0.079802953 0.24236453 1.7142857
-0.076847292 0.24236453 1.7142857
-0.073891625 0.24236453 1.7142857
-0.071287125 0.24356435 1.7227722
-0.068316832 0.24356435 1.7227722
-0.065671645 0.24477611 1.7313433
-0.06268657 0.24477611 1.7313433
-0.059999999 0.24600001 1.74
-0.057 0.24600001 1.74
-0.054271355 0.24723618 1.7487438
-0.05125628 0.24723618 1.7487438
-0.048241206 0.24723618 1.7487438
-0.04568528 0.24974619 1.7664975
-0.042639595 0.24974619 1.7664975
-0.039795917 0.2510204 1.7755102
-0.036734693 0.2510204 1.7755102
-0.033673469 0.2510204 1.7755102
-0.030769231 0.25230768 1.7846154
-0.027692307 0.25230768 1.7846154
-0.024615385 0.25230768 1.7846154
-0.021761658 0.25492227 1.8031088
-0.018652849 0.25492227 1.8031088
-0.015544041 0.25492227 1.8031088
-0.0125 0.25624999 1.8125
-0.0093750004 0.25624999 1.8125
-0.0063157897 0.25894737 1.831579
-0.0031578948 0.25894737 1.831579
0 0.25894737 1.831579
0.0031578948 0.25894737 1.831579
0.0063492064 0.26031747 1.8412699
0.0095238099 0.26031747 1.8412699
0.012698413 0.26031747 1.8412699
0.016129032 0.26451612 1.8709677
0.019354839 0.26451612 1.8709677
0.022580646 0.26451612 1.8709677
0.025806451 0.26451612 1.8709677
0.029032258 0.26451612 1.8709677
0.032432433 0.26594594 1.8810811
0.035869565 0.26739129 1.8913044
0.039130434 0.26739129 1.8913044
0.042857144 0.27032968 1.9120879
0.046153847 0.27032968 1.9120879
0.049180329 0.26885247 1.9016393
0.053038675 0.2718232 1.9226519
0.056353591 0.2718232 1.9226519
0.059999999 0.27333334 1.9333333
0.063333333 0.27333334 1.9333333
0.06703911 0.27486032 1.9441341
0.070391059 0.27486032 1.9441341
0.073743016 0.27486032 1.9441341
0.077966101 0.27796611 1.9661016
0.081355929 0.27796611 1.9661016
0.084745765 0.27796611 1.9661016
0.088135593 0.27796611 1.9661016
0.092045456 0.27954546 1.9772727
0.095454544 0.27954546 1.9772727
0.099428572 0.28114286 1.9885714
0.10344828 0.28275862 2
0.10689655 0.28275862 2
0.11098266 0.28439307 2.0115607
0.11445086 0.28439307 2.0115607
0.11791907 0.28439307 2.0115607
0.12280702 0.28771931 2.0350878
0.12631579 0.28771931 2.0350878
0.12982456 0.28771931 2.0350878
0.13255814 0.2860465 2.0232558
0.13764706 0.28941175 2.0470588
0.14117648 0.28941175 2.0470588
0.14556213 0.29112425 2.0591717
0.14911243 0.29112425 2.0591717
0.15266272 0.29112425 2.0591717
-0.21754386 0.29122806 2.0350878
-0.21403509 0.29122806 2.0350878
-0.21052632 0.29122806 2.0350878
-0.20701754 0.29122806 2.0350878
-0.20232558 0.2895349 2.0232558
-0.19883721 0.2895349 2.0232558
-0.19310345 0.2862069 2
-0.1875 0.28295454 1.9772727
-0.18100558 0.27821228 1.9441341
-0.17765363 0.27821228 1.9441341
-0.17142858 0.27362639 1.9120879
-0.16813187 0.27362639 1.9120879
-0.16216215 0.26918918 1.8810811
-0.15891892 0.26918918 1.8810811
-0.1540107 0.26631016 1.8609625
-0.15080214 0.26631016 1.8609625
-0.14450262 0.26073298 1.8219895
-0.14136125 0.26073298 1.8219895
-0.13821989 0.26073298 1.8219895
-0.13230769 0.25538462 1.7846154
-0.12989691 0.25670102 1.7938144
-0.12487309 0.25279188 1.7664975
-0.12182741 0.25279188 1.7664975
-0.117 0.249 1.74
-0.11287129 0.24653466 1.7227722
-0.10990099 0.24653466 1.7227722
-0.10588235 0.24411765 1.7058823
-0.10294118 0.24411765 1.7058823
-0.098550722 0.24057971 1.6811594
-0.09565217 0.24057971 1.6811594
-0.093658537 0.24292684 1.697561
-0.09073171 0.24292684 1.697561
-0.088235296 0.24411765 1.7058823
-0.08529412 0.24411765 1.7058823
-0.082352944 0.24411765 1.7058823
-0.079802953 0.2453202 1.7142857
-0.077227719 0.24653466 1.7227722
-0.074257426 0.24653466 1.7227722
-0.071287125 0.24653466 1.7227722
-0.068999998 0.249 1.74
-0.066 0.249 1.74
-0.063000001 0.249 1.74
-0.060301509 0.25025126 1.7487438
-0.057286434 0.25025126 1.7487438
-0.054271355 0.25025126 1.7487438
-0.051776651 0.25279188 1.7664975
-0.048730966 0.25279188 1.7664975
-0.04568528 0.25279188 1.7664975
-0.042639595 0.25279188 1.7664975
-0.039795917 0.25408164 1.7755102
-0.036734693 0.25408164 1.7755102
-0.033673469 0.25408164 1.7755102
-0.030769231 0.25538462 1.7846154
-0.027692307 0.25538462 1.7846154
-0.025 0.25937501 1.8125
-0.021875 0.25937501 1.8125
-0.018750001 0.25937501 1.8125
-0.015625 0.25937501 1.8125
-0.012565445 0.26073298 1.8219895
-0.0094240839 0.26073298 1.8219895
-0.0063157897 0.26210526 1.831579
-0.0031578948 0.26210526 1.831579
0 0.26210526 1.831579
0.0031914893 0.26489362 1.8510638
0.0063829785 0.26489362 1.8510638
0.0095744682 0.26489362 1.8510638
0.012765957 0.26489362 1.8510638
0.016129032 0.26774195 1.8709677
0.019354839 0.26774195 1.8709677
0.022580646 0.26774195 1.8709677
0.025945947 0.26918918 1.8810811
0.02918919 0.26918918 1.8810811
0.032432433 0.26918918 1.8810811
0.036065575 0.27213115 1.9016393
0.039560441 0.27362639 1.9120879
0.042857144 0.27362639 1.9120879
0.046153847 0.27362639 1.9120879
0.04945055 0.27362639 1.9120879
0.053038675 0.27513811 1.9226519
0.056353591 0.27513811 1.9226519
0.059999999 0.27666667 1.9333333
0.063687153 0.27821228 1.9441341
0.06703911 0.27821228 1.9441341
0.070391059 0.27821228 1.9441341
0.074576274 0.28135592 1.9661016
0.077966101 0.28135592 1.9661016
0.081355929 0.28135592 1.9661016
0.085227273 0.28295454 1.9772727
0.088636361 0.28295454 1.9772727
0.092045456 0.28295454 1.9772727
0.096000001 0.28457144 1.9885714
0.099428572 0.28457144 1.9885714
0.10344828 0.2862069 2
0.10689655 0.2862069 2
0.11098266 0.28786126 2.0115607
0.11445086 0.28786126 2.0115607
0.11791907 0.28786126 2.0115607
0.12280702 0.29122806 2.0350878
0.12631579 0.29122806 2.0350878
0.12982456 0.29122806 2.0350878
0.13333334 0.29122806 2.0350878
0.13764706 0.29294118 2.0470588
0.14117648 0.29294118 2.0470588
0.14556213 0.29467455 2.0591717
0.14911243 0.29467455 2.0591717
0.15266272 0.29467455 2.0591717
-0.21754386 0.29473683 2.0350878
-0.21403509 0.29473683 2.0350878
-0.21052632 0.29473683 2.0350878
-0.20581396 0.29302326 2.0232558
-0.20232558 0.29302326 2.0232558
-0.19883721 0.29302326 2.0232558
-0.19310345 0.28965518 2
-0.1875 0.28636363 1.9772727
-0.18305084 0.28474575 1.9661016
-0.17966102 0.28474575 1.9661016
-0.17430167 0.28156424 1.9441341
-0.16721311 0.27540985 1.9016393
-0.16393442 0.27540985 1.9016393
-0.16065574 0.27540985 1.9016393
-0.1540107 0.2695187 1.8609625
-0.15080214 0.2695187 1.8609625
-0.14603175 0.26666668 1.8412699
-0.14136125 0.26387435 1.8219895
-0.13821989 0.26387435 1.8219895
-0.13298969 0.25979382 1.7938144
-0.12989691 0.25979382 1.7938144
-0.1255102 0.25714287 1.7755102
-0.12182741 0.25583756 1.7664975
-0.11818182 0.25454545 1.7575758
-0.11515152 0.25454545 1.7575758
-0.11212121 0.25454545 1.7575758
-0.10588235 0.24705882 1.7058823
-0.10294118 0.24705882 1.7058823
-0.099029124 0.2446602 1.6893204
-0.096116506 0.2446602 1.6893204
-0.094117649 0.24705882 1.7058823
-0.091176473 0.24705882 1.7058823
-0.088669948 0.24827586 1.7142857
-0.08529412 0.24705882 1.7058823
-0.08316832 0.24950495 1.7227722
-0.08019802 0.24950495 1.7227722
-0.077227719 0.24950495 1.7227722
-0.074626863 0.25074628 1.7313433
-0.071641788 0.25074628 1.7313433
-0.068999998 0.252 1.74
-0.066 0.252 1.74
-0.063000001 0.252 1.74
-0.060301509 0.25326633 1.7487438
-0.057575759 0.25454545 1.7575758
-0.054822337 0.25583756 1.7664975
-0.051776651 0.25583756 1.7664975
-0.048730966 0.25583756 1.7664975
-0.04568528 0.25583756 1.7664975
-0.043076921 0.25846153 1.7846154
-0.039999999 0.25846153 1.7846154
-0.036923077 0.25846153 1.7846154
-0.033846155 0.25846153 1.7846154
-0.030769231 0.25846153 1.7846154
-0.028124999 0.26249999 1.8125
-0.025 0.26249999 1.8125
-0.021875 0.26249999 1.8125
-0.018750001 0.26249999 1.8125
-0.015706806 0.26387435 1.8219895
-0.012565445 0.26387435 1.8219895
-0.0094240839 0.26387435 1.8219895
-0.0063157897 0.26526317 1.831579
-0.0031578948 0.26526317 1.831579
0 0.26808509 1.8510638
0.0031914893 0.26808509 1.8510638
0.0063829785 0.26808509 1.8510638
0.0095744682 0.26808509 1.8510638
0.012834225 0.2695187 1.8609625
0.016129032 0.27096775 1.8709677
0.019354839 0.27096775 1.8709677
0.022580646 0.27096775 1.8709677
0.025945947 0.27243245 1.8810811
0.02918919 0.27243245 1.8810811
0.032786883 0.27540985 1.9016393
0.036065575 0.27540985 1.9016393
0.039560441 0.27692309 1.9120879
0.042857144 0.27692309 1.9120879
0.046153847 0.27692309 1.9120879
0.049723756 0.27845305 1.9226519
0.053038675 0.27845305 1.9226519
0.05698324 0.28156424 1.9441341
0.060335197 0.28156424 1.9441341
0.063687153 0.28156424 1.9441341
0.06703911 0.28156424 1.9441341
0.071186438 0.28474575 1.9661016
0.074576274 0.28474575 1.9661016
0.077966101 0.28474575 1.9661016
0.081818178 0.28636363 1.9772727
0.085227273 0.28636363 1.9772727
0.088636361 0.28636363 1.9772727
0.093103446 0.28965518 2
0.096551724 0.28965518 2
0.1 0.28965518 2
0.10344828 0.28965518 2
0.10751445 0.29132947 2.0115607
0.11098266 0.29132947 2.0115607
0.11578947 0.29473683 2.0350878
0.11929824 0.29473683 2.0350878
0.12280702 0.29473683 2.0350878
0.12631579 0.29473683 2.0350878
0.12982456 0.29473683 2.0350878
0.13333334 0.29473683 2.0350878
0.14117648 0.29647058 2.0470588
0.14556213 0.29822487 2.0591717
-0.20930232 0.29651162 2.0232558
-0.20581396 0.29651162 2.0232558
-0.20232558 0.29651162 2.0232558
-0.19883721 0.29651162 2.0232558
-0.19310345 0.29310346 2
-0.1875 0.28977272 1.9772727
-0.18305084 0.28813559 1.9661016
-0.17765363 0.28491619 1.9441341
-0.17430167 0.28491619 1.9441341
-0.17094973 0.28491619 1.9441341
-0.16393442 0.27868852 1.9016393
-0.16065574 0.27868852 1.9016393
-0.1540107 0.27272728 1.8609625
-0.15080214 0.27272728 1.8609625
-0.14603175 0.26984128 1.8412699
-0.14361702 0.27127659 1.8510638
-0.1375 0.265625 1.8125
-0.13437501 0.265625 1.8125
-0.12989691 0.26288658 1.7938144
-0.1255102 0.26020408 1.7755102
-0.12182741 0.25888324 1.7664975
-0.11818182 0.25757575 1.7575758
-0.11515152 0.25757575 1.7575758
-0.11212121 0.25757575 1.7575758
-0.10588235 0.25 1.7058823
-0.10294118 0.25 1.7058823
-0.099029124 0.24757281 1.6893204
-0.097058825 0.25 1.7058823
-0.094117649 0.25 1.7058823
-0.091176473 0.25 1.7058823
-0.088669948 0.25123152 1.7142857
-0.085714288 0.25123152 1.7142857
-0.08316832 0.25247526 1.7227722
-0.08019802 0.25247526 1.7227722
-0.077611938 0.25373134 1.7313433
-0.074626863 0.25373134 1.7313433
-0.071999997 0.255 1.74
-0.068999998 0.255 1.74
-0.066 0.255 1.74
-0.063636363 0.25757575 1.7575758
-0.060606062 0.25757575 1.7575758
-0.057575759 0.25757575 1.7575758
-0.054545455 0.25757575 1.7575758
-0.051776651 0.25888324 1.7664975
-0.048730966 0.25888324 1.7664975
-0.046153847 0.26153848 1.7846154
-0.043076921 0.26153848 1.7846154
-0.039999999 0.26153848 1.7846154
-0.036923077 0.26153848 1.7846154
-0.033846155 0.26153848 1.7846154
-0.03125 0.265625 1.8125
-0.028124999 0.265625 1.8125
-0.025 0.265625 1.8125
-0.021875 0.265625 1.8125
-0.018848168 0.2670157 1.8219895
-0.015706806 0.2670157 1.8219895
-0.012631579 0.26842105 1.831579
-0.0094736842 0.26842105 1.831579
-0.0063492064 0.26984128 1.8412699
-0.0031746032 0.26984128 1.8412699
0 0.27127659 1.8510638
0.0031914893 0.27127659 1.8510638
0.0063829785 0.27127659 1.8510638
0.0096256686 0.27272728 1.8609625
0.012834225 0.27272728 1.8609625
0.016129032 0.27419356 1.8709677
0.01945946 0.27567568 1.8810811
0.022702703 0.27567568 1.8810811
0.026229508 0.27868852 1.9016393
0.029508196 0.27868852 1.9016393
0.032786883 0.27868852 1.9016393
0.036263738 0.28021979 1.9120879
0.039560441 0.28021979 1.9120879
0.042857144 0.28021979 1.9120879
0.04640884 0.28176796 1.9226519
0.049723756 0.28176796 1.9226519
0.053631283 0.28491619 1.9441341
0.05698324 0.28491619 1.9441341
0.060335197 0.28491619 1.9441341
0.064044945 0.28651685 1.9550562
0.06703911 0.28491619 1.9441341
0.071186438 0.28813559 1.9661016
0.074576274 0.28813559 1.9661016
0.077966101 0.28813559 1.9661016
0.081818178 0.28977272 1.9772727
0.085227273 0.28977272 1.9772727
0.089142859 0.29142857 1.9885714
0.09257143 0.29142857 1.9885714
0.096551724 0.29310346 2
0.1 0.29310346 2
0.10344828 0.29310346 2
0.10751445 0.29479769 2.0115607
0.1122807 0.29824561 2.0350878
0.11578947 0.29824561 2.0350878
0.11929824 0.29824561 2.0350878
0.12280702 0.29824561 2.0350878
0.12631579 0.29824561 2.0350878
0.12982456 0.29824561 2.0350878
0.13333334 0.29824561 2.0350878
-0.20930232 0.30000001 2.0232558
-0.20581396 0.30000001 2.0232558
-0.20232558 0.30000001 2.0232558
-0.19883721 0.30000001 2.0232558
-0.19310345 0.29655173 2
-0.18965517 0.29655173 2
-0.18620689 0.29655173 2
-0.17966102 0.29152542 1.9661016
-0.17430167 0.28826815 1.9441341
-0.17094973 0.28826815 1.9441341
-0.16759777 0.28826815 1.9441341
-0.16153847 0.2835165 1.9120879
-0.15824176 0.2835165 1.9120879
-0.15080214 0.27593583 1.8609625
-0.14759359 0.27593583 1.8609625
-0.14361702 0.27446809 1.8510638
-0.13894737 0.27157894 1.831579
-0.13437501 0.26875001 1.8125
-0.13124999 0.26875001 1.8125
-0.128125 0.26875001 1.8125
-0.12244898 0.26326531 1.7755102
-0.11938775 0.26326531 1.7755102
-0.11573604 0.26192895 1.7664975
-0.11269035 0.26192895 1.7664975
-0.10588235 0.25294119 1.7058823
-0.10294118 0.25294119 1.7058823
-0.1 0.25294119 1.7058823
-0.097058825 0.25294119 1.7058823
-0.094117649 0.25294119 1.7058823
-0.091176473 0.25294119 1.7058823
-0.088669948 0.2541872 1.7142857
-0.086138614 0.25544554 1.7227722
-0.08316832 0.25544554 1.7227722
-0.080597013 0.25671643 1.7313433
-0.077611938 0.25671643 1.7313433
-0.075000003 0.25799999 1.74
-0.071999997 0.25799999 1.74
-0.068999998 0.25799999 1.74
-0.06666667 0.26060605 1.7575758
-0.063636363 0.26060605 1.7575758
-0.060606062 0.26060605 1.7575758
-0.057575759 0.26060605 1.7575758
-0.054545455 0.26060605 1.7575758
-0.051776651 0.26192895 1.7664975
-0.049230769 0.26461539 1.7846154
-0.046153847 0.26461539 1.7846154
-0.043076921 0.26461539 1.7846154
-0.039999999 0.26461539 1.7846154
-0.036923077 0.26461539 1.7846154
-0.033846155 0.26461539 1.7846154
-0.03125 0.26875001 1.8125
-0.028124999 0.26875001 1.8125
-0.025 0.26875001 1.8125
-0.021875 0.26875001 1.8125
-0.018848168 0.27015707 1.8219895
-0.015789473 0.27157894 1.831579
-0.012631579 0.27157894 1.831579
-0.0094736842 0.27157894 1.831579
-0.0063492064 0.27301589 1.8412699
-0.0031746032 0.27301589 1.8412699
0 0.27446809 1.8510638
0.0031914893 0.27446809 1.8510638
0.0064171124 0.27593583 1.8609625
0.0096256686 0.27593583 1.8609625
0.012972973 0.27891892 1.8810811
0.016216217 0.27891892 1.8810811
0.019565217 0.28043479 1.8913044
0.022826087 0.28043479 1.8913044
0.026229508 0.28196722 1.9016393
0.029508196 0.28196722 1.9016393
0.032786883 0.28196722 1.9016393
0.036263738 0.2835165 1.9120879
0.039779004 0.28508288 1.9226519
0.043093923 0.28508288 1.9226519
0.046666667 0.28666666 1.9333333
0.050000001 0.28666666 1.9333333
0.053333335 0.28666666 1.9333333
0.05698324 0.28826815 1.9441341
0.060674157 0.28988764 1.9550562
0.064044945 0.28988764 1.9550562
0.06779661 0.29152542 1.9661016
0.071590908 0.29318181 1.9772727
0.075000003 0.29318181 1.9772727
0.078857146 0.29485714 1.9885714
0.082285717 0.29485714 1.9885714
0.085714288 0.29485714 1.9885714
0.089142859 0.29485714 1.9885714
0.093641616 0.2982659 2.0115607
0.097109824 0.2982659 2.0115607
0.10057803 0.2982659 2.0115607
0.10404624 0.2982659 2.0115607
0.10813954 0.30000001 2.0232558
0.1122807 0.30175439 2.0350878
0.11578947 0.30175439 2.0350878
0.11929824 0.30175439 2.0350878
0.12280702 0.30175439 2.0350878
0.12631579 0.30175439 2.0350878
0.12982456 0.30175439 2.0350878
-0.21176471 0.30705881 2.0470588
-0.20823529 0.30705881 2.0470588
-0.20470588 0.30705881 2.0470588
-0.20117646 0.30705881 2.0470588
-0.19764706 0.30705881 2.0470588
-0.19075145 0.30173409 2.0115607
-0.18728323 0.30173409 2.0115607
-0.18068182 0.29659089 1.9772727
-0.17627119 0.29491526 1.9661016
-0.17094973 0.29162011 1.9441341
-0.16759777 0.29162011 1.9441341
-0.16153847 0.2868132 1.9120879
-0.15824176 0.2868132 1.9120879
-0.15080214 0.27914438 1.8609625
-0.14759359 0.27914438 1.8609625
-0.14361702 0.27765957 1.8510638
-0.13894737 0.27473685 1.831579
-0.13650794 0.27619049 1.8412699
-0.13124999 0.27187499 1.8125
-0.128125 0.27187499 1.8125
-0.12244898 0.26632652 1.7755102
-0.11938775 0.26632652 1.7755102
-0.11573604 0.26497462 1.7664975
-0.11269035 0.26497462 1.7664975
-0.108 0.26100001 1.74
-0.105 0.26100001 1.74
-0.1 0.25588235 1.7058823
-0.097058825 0.25588235 1.7058823
-0.094581284 0.25714287 1.7142857
-0.091625616 0.25714287 1.7142857
-0.089108914 0.25841585 1.7227722
-0.086138614 0.25841585 1.7227722
-0.08316832 0.25841585 1.7227722
-0.080597013 0.25970149 1.7313433
-0.077611938 0.25970149 1.7313433
-0.075000003 0.26100001 1.74
-0.071999997 0.26100001 1.74
-0.06969697 0.26363635 1.7575758
-0.06666667 0.26363635 1.7575758
-0.063636363 0.26363635 1.7575758
-0.060606062 0.26363635 1.7575758
-0.057575759 0.26363635 1.7575758
-0.055384614 0.2676923 1.7846154
-0.052307691 0.2676923 1.7846154
-0.049230769 0.2676923 1.7846154
-0.046391752 0.26907218 1.7938144
-0.043298971 0.26907218 1.7938144
-0.040206186 0.26907218 1.7938144
-0.037305698 0.27046633 1.8031088
-0.034375001 0.27187499 1.8125
-0.03125 0.27187499 1.8125
-0.028272251 0.27329844 1.8219895
-0.02513089 0.27329844 1.8219895
-0.021989528 0.27329844 1.8219895
-0.018947368 0.27473685 1.831579
-0.015789473 0.27473685 1.831579
-0.012698413 0.27619049 1.8412699
-0.0095238099 0.27619049 1.8412699
-0.0063492064 0.27619049 1.8412699
-0.0031746032 0.27619049 1.8412699
0 0.28064516 1.8709677
0.0032258064 0.28064516 1.8709677
0.0064864866 0.28216216 1.8810811
0.00972973 0.28216216 1.8810811
0.012972973 0.28216216 1.8810811
0.016216217 0.28216216 1.8810811
0.019565217 0.28369564 1.8913044
0.022950819 0.2852459 1.9016393
0.026373627 0.2868132 1.9120879
0.02967033 0.2868132 1.9120879
0.033149172 0.28839779 1.9226519
0.036464088 0.28839779 1.9226519
0.039779004 0.28839779 1.9226519
0.043333333 0.28999999 1.9333333
0.046666667 0.28999999 1.9333333
0.050000001 0.28999999 1.9333333
0.053333335 0.28999999 1.9333333
0.057303369 0.29325843 1.9550562
0.060674157 0.29325843 1.9550562
0.064406782 0.29491526 1.9661016
0.06779661 0.29491526 1.9661016
0.071590908 0.29659089 1.9772727
0.075000003 0.29659089 1.9772727
0.078857146 0.29828572 1.9885714
0.082285717 0.29828572 1.9885714
0.086206898 0.30000001 2
0.089655176 0.30000001 2
0.093641616 0.30173409 2.0115607
0.097109824 0.30173409 2.0115607
0.10057803 0.30173409 2.0115607
0.10465116 0.30348837 2.0232558
0.10813954 0.30348837 2.0232558
0.1122807 0.30526316 2.0350878
0.11647059 0.30705881 2.0470588
0.12 0.30705881 2.0470588
0.12352941 0.30705881 2.0470588
0.12705882 0.30705881 2.0470588
-0.20823529 0.31058824 2.0470588
-0.20470588 0.31058824 2.0470588
-0.20117646 0.31058824 2.0470588
-0.19764706 0.31058824 2.0470588
-0.19075145 0.30520231 2.0115607
-0.18620689 0.30344829 2
-0.18068182 0.30000001 1.9772727
-0.17627119 0.29830509 1.9661016
-0.17094973 0.29497206 1.9441341
-0.16853933 0.29662922 1.9550562
-0.16153847 0.2901099 1.9120879
-0.15824176 0.2901099 1.9120879
-0.15409836 0.2885246 1.9016393
-0.15000001 0.28695652 1.8913044
-0.14361702 0.28085107 1.8510638
-0.14042553 0.28085107 1.8510638
-0.13650794 0.27936509 1.8412699
-0.13333334 0.27936509 1.8412699
-0.12746114 0.27357513 1.8031088
-0.12435233 0.27357513 1.8031088
-0.11938775 0.26938775 1.7755102
-0.11573604 0.2680203 1.7664975
-0.11269035 0.2680203 1.7664975
-0.108 0.264 1.74
-0.105 0.264 1.74
-0.102 0.264 1.74
-0.097536944 0.26009852 1.7142857
-0.094581284 0.26009852 1.7142857
-0.091625616 0.26009852 1.7142857
-0.089108914 0.26138613 1.7227722
-0.086138614 0.26138613 1.7227722
-0.083582088 0.26268658 1.7313433
-0.081 0.264 1.74
-0.078000002 0.264 1.74
-0.075000003 0.264 1.74
-0.07272727 0.26666668 1.7575758
-0.06969697 0.26666668 1.7575758
-0.06666667 0.26666668 1.7575758
-0.063636363 0.26666668 1.7575758
-0.060606062 0.26666668 1.7575758
-0.058461539 0.27076924 1.7846154
-0.055384614 0.27076924 1.7846154
-0.052307691 0.27076924 1.7846154
-0.049230769 0.27076924 1.7846154
-0.046391752 0.27216494 1.7938144
-0.043298971 0.27216494 1.7938144
-0.040414508 0.27357513 1.8031088
-0.037305698 0.27357513 1.8031088
-0.034375001 0.27500001 1.8125
-0.03125 0.27500001 1.8125
-0.028124999 0.27500001 1.8125
-0.02513089 0.27643979 1.8219895
-0.021989528 0.27643979 1.8219895
-0.018947368 0.27789474 1.831579
-0.015789473 0.27789474 1.831579
-0.012698413 0.27936509 1.8412699
-0.0095238099 0.27936509 1.8412699
-0.0064171124 0.28235295 1.8609625
-0.0032085562 0.28235295 1.8609625
0 0.28387097 1.8709677
0.0032258064 0.28387097 1.8709677
0.0064864866 0.2854054 1.8810811
0.00972973 0.2854054 1.8810811
0.012972973 0.2854054 1.8810811
0.016393442 0.2885246 1.9016393
0.019672131 0.2885246 1.9016393
0.022950819 0.2885246 1.9016393
0.026373627 0.2901099 1.9120879
0.02967033 0.2901099 1.9120879
0.033149172 0.2917127 1.9226519
0.036666665 0.29333332 1.9333333
0.039999999 0.29333332 1.9333333
0.043333333 0.29333332 1.9333333
0.046927374 0.29497206 1.9441341
0.05027933 0.29497206 1.9441341
0.053631283 0.29497206 1.9441341
0.057627119 0.29830509 1.9661016
0.061016951 0.29830509 1.9661016
0.064406782 0.29830509 1.9661016
0.06818182 0.30000001 1.9772727
0.071590908 0.30000001 1.9772727
0.075428568 0.30171427 1.9885714
0.078857146 0.30171427 1.9885714
0.08275862 0.30344829 2
0.086206898 0.30344829 2
0.089655176 0.30344829 2
0.094186045 0.30697674 2.0232558
0.097674422 0.30697674 2.0232558
0.10116279 0.30697674 2.0232558
0.10465116 0.30697674 2.0232558
0.10941176 0.31058824 2.0470588
0.11294118 0.31058824 2.0470588
0.11647059 0.31058824 2.0470588
0.12 0.31058824 2.0470588
0.12352941 0.31058824 2.0470588
-0.20823529 0.31411764 2.0470588
-0.20470588 0.31411764 2.0470588
-0.20117646 0.31411764 2.0470588
-0.19764706 0.31411764 2.0470588
-0.18965517 0.30689654 2
-0.18620689 0.30689654 2
-0.18171428 0.30514285 1.9885714
-0.17828572 0.30514285 1.9885714
-0.17485714 0.30514285 1.9885714
-0.16853933 0.30000001 1.9550562
-0.16516854 0.30000001 1.9550562
-0.15737705 0.29180327 1.9016393
-0.15409836 0.29180327 1.9016393
-0.15000001 0.2902174 1.8913044
-0.14594595 0.28864864 1.8810811
-0.14042553 0.28404257 1.8510638
-0.13723405 0.28404257 1.8510638
-0.13404255 0.28404257 1.8510638
-0.12879582 0.27958116 1.8219895
-0.12435233 0.27668393 1.8031088
-0.12124352 0.27668393 1.8031088
-0.11632653 0.27244899 1.7755102
-0.11326531 0.27244899 1.7755102
-0.10964467 0.27106598 1.7664975
-0.105 0.26699999 1.74
-0.1009901 0.26435643 1.7227722
-0.098019801 0.26435643 1.7227722
-0.094581284 0.26305419 1.7142857
-0.092079207 0.26435643 1.7227722
-0.089108914 0.26435643 1.7227722
-0.086567163 0.26567164 1.7313433
-0.083582088 0.26567164 1.7313433
-0.081 0.26699999 1.74
-0.078000002 0.26699999 1.74
-0.075376883 0.26834172 1.7487438
-0.072361812 0.26834172 1.7487438
-0.06969697 0.26969698 1.7575758
-0.067005076 0.27106598 1.7664975
-0.06395939 0.27106598 1.7664975
-0.060913704 0.27106598 1.7664975
-0.058461539 0.27384615 1.7846154
-0.055384614 0.27384615 1.7846154
-0.052307691 0.27384615 1.7846154
-0.049230769 0.27384615 1.7846154
-0.046391752 0.27525774 1.7938144
-0.043298971 0.27525774 1.7938144
-0.040414508 0.27668393 1.8031088
-0.037305698 0.27668393 1.8031088
-0.034375001 0.27812499 1.8125
-0.03125 0.27812499 1.8125
-0.028124999 0.27812499 1.8125
-0.025396826 0.2825397 1.8412699
-0.022222223 0.2825397 1.8412699
-0.01904762 0.2825397 1.8412699
-0.015957447 0.28404257 1.8510638
-0.012765957 0.28404257 1.8510638
-0.0095744682 0.28404257 1.8510638
-0.0064171124 0.2855615 1.8609625
-0.0032085562 0.2855615 1.8609625
0 0.28709677 1.8709677
0.0032258064 0.28709677 1.8709677
0.0064864866 0.28864864 1.8810811
0.00972973 0.28864864 1.8810811
0.012972973 0.28864864 1.8810811
0.016393442 0.29180327 1.9016393
0.019672131 0.29180327 1.9016393
0.022950819 0.29180327 1.9016393
0.026373627 0.29340661 1.9120879
0.029834254 0.29502761 1.9226519
0.033149172 0.29502761 1.9226519
0.036666665 0.29666665 1.9333333
0.039999999 0.29666665 1.9333333
0.043575417 0.29832402 1.9441341
0.046927374 0.29832402 1.9441341
0.05027933 0.29832402 1.9441341
0.053932585 0.30000001 1.9550562
0.057627119 0.30169493 1.9661016
0.061016951 0.30169493 1.9661016
0.064772725 0.3034091 1.9772727
0.06818182 0.3034091 1.9772727
0.071999997 0.30514285 1.9885714
0.075428568 0.30514285 1.9885714
0.079310343 0.30689654 2
0.08275862 0.30689654 2
0.086206898 0.30689654 2
0.090697676 0.31046513 2.0232558
0.094186045 0.31046513 2.0232558
0.097674422 0.31046513 2.0232558
0.10175438 0.31228071 2.0350878
0.10588235 0.31411764 2.0470588
0.10941176 0.31411764 2.0470588
0.11294118 0.31411764 2.0470588
0.11647059 0.31411764 2.0470588
0.12 0.31411764 2.0470588
0.12352941 0.31411764 2.0470588
-0.20117646 0.31764707 2.0470588
-0.19534884 0.31395349 2.0232558
-0.19186047 0.31395349 2.0232558
-0.18837209 0.31395349 2.0232558
-0.18488371 0.31395349 2.0232558
-0.17828572 0.30857143 1.9885714
-0.17485714 0.30857143 1.9885714
-0.16853933 0.30337077 1.9550562
-0.16516854 0.30337077 1.9550562
-0.15737705 0.29508197 1.9016393
-0.15409836 0.29508197 1.9016393
-0.15000001 0.29347825 1.8913044
-0.14594595 0.2918919 1.8810811
-0.14193548 0.29032257 1.8709677
