# .PCD v0.7 - Point Cloud Data file format
VERSION 0.7
FIELDS x y z
SIZE 4 4 4
TYPE F F F
COUNT 1 1 1
WIDTH 1446
HEIGHT 1
VIEWPOINT 0 0 0 1 0 0 0
POINTS 1446
DATA ascii
0.2175 -0.16500001 1.5
0.22499999 -0.16500001 1.5
0.23544304 -0.16708861 1.5189873
0.24303797 -0.16708861 1.5189873
0.25063291 -0.16708861 1.5189873
0.25822785 -0.16708861 1.5189873
0.2658228 -0.16708861 1.5189873
-0.352 -0.168 1.6
-0.24489796 -0.12857144 1.2244898
-0.23877551 -0.12857144 1.2244898
-0.23265307 -0.12857144 1.2244898
-0.22653061 -0.12857144 1.2244898
-0.22040816 -0.12857144 1.2244898
-0.20792079 -0.12475248 1.1881188
-0.2019802 -0.12475248 1.1881188
-0.1960396 -0.12475248 1.1881188
-0.1882353 -0.12352941 1.1764706
-0.18235295 -0.12352941 1.1764706
-0.17475729 -0.1223301 1.1650486
-0.16893204 -0.1223301 1.1650486
-0.1631068 -0.1223301 1.1650486
-0.15428571 -0.12 1.1428572
-0.14857143 -0.12 1.1428572
-0.14285715 -0.12 1.1428572
-0.13584906 -0.11886793 1.1320754
-0.13018867 -0.11886793 1.1320754
-0.12336449 -0.11775701 1.1214954
-0.11775701 -0.11775701 1.1214954
-0.11214953 -0.11775701 1.1214954
-0.10654206 -0.11775701 1.1214954
-0.10093458 -0.11775701 1.1214954
-0.095327102 -0.11775701 1.1214954
-0.089719623 -0.11775701 1.1214954
-0.084112152 -0.11775701 1.1214954
-0.078504674 -0.11775701 1.1214954
-0.072897196 -0.11775701 1.1214954
-0.067289717 -0.11775701 1.1214954
-0.061682243 -0.11775701 1.1214954
-0.056074765 -0.11775701 1.1214954
-0.05046729 -0.11775701 1.1214954
-0.044859812 -0.11775701 1.1214954
-0.039252337 -0.11775701 1.1214954
-0.033644859 -0.11775701 1.1214954
-0.028037382 -0.11775701 1.1214954
-0.022429906 -0.11775701 1.1214954
-0.016981132 -0.11886793 1.1320754
-0.011320755 -0.11886793 1.1320754
-0.0056603774 -0.11886793 1.1320754
0 -0.11886793 1.1320754
0.0056603774 -0.11886793 1.1320754
0.011320755 -0.11886793 1.1320754
0.017142856 -0.12 1.1428572
0.022857143 -0.12 1.1428572
0.028571429 -0.12 1.1428572
0.034285713 -0.12 1.1428572
0.039999999 -0.12 1.1428572
0.045714285 -0.12 1.1428572
0.051923078 -0.12115385 1.1538461
0.057692308 -0.12115385 1.1538461
0.063461542 -0.12115385 1.1538461
0.070588239 -0.12352941 1.1764706
0.076470591 -0.12352941 1.1764706
0.082352944 -0.12352941 1.1764706
0.089108914 -0.12475248 1.1881188
0.095049508 -0.12475248 1.1881188
0.1009901 -0.12475248 1.1881188
0.10909091 -0.12727273 1.2121212
0.11875 -0.13124999 1.25
0.125 -0.13124999 1.25
0.13404255 -0.13404255 1.2765957
0.14347826 -0.13695653 1.3043479
0.15000001 -0.13695653 1.3043479
0.15652174 -0.13695653 1.3043479
0.18518518 -0.15555556 1.4814814
0.19259259 -0.15555556 1.4814814
0.2025 -0.1575 1.5
0.20999999 -0.1575 1.5
0.2175 -0.1575 1.5
0.22499999 -0.1575 1.5
0.2325 -0.1575 1.5
0.24303797 -0.15949367 1.5189873
0.25063291 -0.15949367 1.5189873
0.25822785 -0.15949367 1.5189873
-0.24489796 -0.12244898 1.2244898
-0.23877551 -0.12244898 1.2244898
-0.23265307 -0.12244898 1.2244898
-0.22653061 -0.12244898 1.2244898
-0.22040816 -0.12244898 1.2244898
-0.20792079 -0.11881188 1.1881188
-0.2019802 -0.11881188 1.1881188
-0.19411765 -0.11764706 1.1764706
-0.1882353 -0.11764706 1.1764706
-0.18058252 -0.11650486 1.1650486
-0.17475729 -0.11650486 1.1650486
-0.16893204 -0.11650486 1.1650486
-0.16 -0.11428571 1.1428572
-0.15428571 -0.11428571 1.1428572
-0.14857143 -0.11428571 1.1428572
-0.14285715 -0.11428571 1.1428572
-0.13584906 -0.11320755 1.1320754
-0.13018867 -0.11320755 1.1320754
-0.1245283 -0.11320755 1.1320754
-0.11775701 -0.11214953 1.1214954
-0.11214953 -0.11214953 1.1214954
-0.10654206 -0.11214953 1.1214954
-0.10093458 -0.11214953 1.1214954
-0.095327102 -0.11214953 1.1214954
-0.089719623 -0.11214953 1.1214954
-0.084112152 -0.11214953 1.1214954
-0.078504674 -0.11214953 1.1214954
-0.072897196 -0.11214953 1.1214954
-0.067289717 -0.11214953 1.1214954
-0.061682243 -0.11214953 1.1214954
-0.056074765 -0.11214953 1.1214954
-0.05046729 -0.11214953 1.1214954
-0.044859812 -0.11214953 1.1214954
-0.039252337 -0.11214953 1.1214954
-0.033644859 -0.11214953 1.1214954
-0.028037382 -0.11214953 1.1214954
-0.022429906 -0.11214953 1.1214954
-0.016822429 -0.11214953 1.1214954
-0.011214953 -0.11214953 1.1214954
-0.0056603774 -0.11320755 1.1320754
0 -0.11320755 1.1320754
0.0056603774 -0.11320755 1.1320754
0.011320755 -0.11320755 1.1320754
0.016981132 -0.11320755 1.1320754
0.02264151 -0.11320755 1.1320754
0.028301887 -0.11320755 1.1320754
0.034285713 -0.11428571 1.1428572
0.039999999 -0.11428571 1.1428572
0.046153847 -0.11538462 1.1538461
0.051923078 -0.11538462 1.1538461
0.057692308 -0.11538462 1.1538461
0.063461542 -0.11538462 1.1538461
0.069902912 -0.11650486 1.1650486
0.076470591 -0.11764706 1.1764706
0.082352944 -0.11764706 1.1764706
0.089108914 -0.11881188 1.1881188
0.095049508 -0.11881188 1.1881188
0.1009901 -0.11881188 1.1881188
0.10909091 -0.12121212 1.2121212
0.11875 -0.125 1.25
0.125 -0.125 1.25
0.13124999 -0.125 1.25
0.14193548 -0.12903225 1.2903225
0.15000001 -0.13043478 1.3043479
0.15652174 -0.13043478 1.3043479
0.18518518 -0.14814815 1.4814814
0.19259259 -0.14814815 1.4814814
0.2025 -0.15000001 1.5
0.20999999 -0.15000001 1.5
0.2175 -0.15000001 1.5
0.22499999 -0.15000001 1.5
0.2325 -0.15000001 1.5
0.23999999 -0.15000001 1.5
0.2475 -0.15000001 1.5
0.25822785 -0.15189873 1.5189873
-0.24489796 -0.11632653 1.2244898
-0.23877551 -0.11632653 1.2244898
-0.23265307 -0.11632653 1.2244898
-0.22653061 -0.11632653 1.2244898
-0.22040816 -0.11632653 1.2244898
-0.20792079 -0.11287129 1.1881188
-0.2 -0.11176471 1.1764706
-0.19411765 -0.11176471 1.1764706
-0.1882353 -0.11176471 1.1764706
-0.18058252 -0.11067961 1.1650486
-0.17475729 -0.11067961 1.1650486
-0.16893204 -0.11067961 1.1650486
-0.16 -0.10857143 1.1428572
-0.15428571 -0.10857143 1.1428572
-0.14716981 -0.10754717 1.1320754
-0.14150943 -0.10754717 1.1320754
-0.13584906 -0.10754717 1.1320754
-0.13018867 -0.10754717 1.1320754
-0.12336449 -0.10654206 1.1214954
-0.11775701 -0.10654206 1.1214954
-0.11214953 -0.10654206 1.1214954
-0.10654206 -0.10654206 1.1214954
-0.10093458 -0.10654206 1.1214954
-0.095327102 -0.10654206 1.1214954
-0.088888891 -0.10555556 1.1111112
-0.083333336 -0.10555556 1.1111112
-0.078504674 -0.10654206 1.1214954
-0.072897196 -0.10654206 1.1214954
-0.067289717 -0.10654206 1.1214954
-0.061111111 -0.10555556 1.1111112
-0.056074765 -0.10654206 1.1214954
-0.05046729 -0.10654206 1.1214954
-0.044444446 -0.10555556 1.1111112
-0.03888889 -0.10555556 1.1111112
-0.033644859 -0.10654206 1.1214954
-0.028037382 -0.10654206 1.1214954
-0.022429906 -0.10654206 1.1214954
-0.016822429 -0.10654206 1.1214954
-0.011214953 -0.10654206 1.1214954
-0.0056603774 -0.10754717 1.1320754
0 -0.10754717 1.1320754
0.0056603774 -0.10754717 1.1320754
0.011320755 -0.10754717 1.1320754
0.016981132 -0.10754717 1.1320754
0.02264151 -0.10754717 1.1320754
0.028301887 -0.10754717 1.1320754
0.034285713 -0.10857143 1.1428572
0.039999999 -0.10857143 1.1428572
0.045714285 -0.10857143 1.1428572
0.051923078 -0.10961539 1.1538461
0.057692308 -0.10961539 1.1538461
0.063461542 -0.10961539 1.1538461
0.069902912 -0.11067961 1.1650486
0.075728156 -0.11067961 1.1650486
0.082352944 -0.11176471 1.1764706
0.089108914 -0.11287129 1.1881188
0.095049508 -0.11287129 1.1881188
0.1030303 -0.11515152 1.2121212
0.10909091 -0.11515152 1.2121212
0.11515152 -0.11515152 1.2121212
0.125 -0.11875 1.25
0.13263159 -0.12 1.2631578
0.14193548 -0.12258065 1.2903225
0.14838709 -0.12258065 1.2903225
0.15652174 -0.12391304 1.3043479
0.16304348 -0.12391304 1.3043479
0.19499999 -0.1425 1.5
0.2025 -0.1425 1.5
0.20999999 -0.1425 1.5
0.2175 -0.1425 1.5
0.22499999 -0.1425 1.5
0.2325 -0.1425 1.5
0.23999999 -0.1425 1.5
0.2475 -0.1425 1.5
-0.2510204 -0.11020408 1.2244898
-0.24489796 -0.11020408 1.2244898
-0.23877551 -0.11020408 1.2244898
-0.23265307 -0.11020408 1.2244898
-0.22653061 -0.11020408 1.2244898
-0.21386139 -0.1069307 1.1881188
-0.20792079 -0.1069307 1.1881188
-0.2 -0.10588235 1.1764706
-0.19411765 -0.10588235 1.1764706
-0.1882353 -0.10588235 1.1764706
-0.17884615 -0.10384616 1.1538461
-0.17307693 -0.10384616 1.1538461
-0.16730769 -0.10384616 1.1538461
-0.16 -0.10285714 1.1428572
-0.15283018 -0.10188679 1.1320754
-0.14716981 -0.10188679 1.1320754
-0.14150943 -0.10188679 1.1320754
-0.13584906 -0.10188679 1.1320754
-0.13018867 -0.10188679 1.1320754
-0.12336449 -0.10093458 1.1214954
-0.11775701 -0.10093458 1.1214954
-0.11214953 -0.10093458 1.1214954
-0.10654206 -0.10093458 1.1214954
-0.10093458 -0.10093458 1.1214954
-0.095327102 -0.10093458 1.1214954
-0.088888891 -0.1 1.1111112
-0.083333336 -0.1 1.1111112
-0.077777781 -0.1 1.1111112
-0.072222225 -0.1 1.1111112
-0.06666667 -0.1 1.1111112
-0.061111111 -0.1 1.1111112
-0.055555556 -0.1 1.1111112
-0.050000001 -0.1 1.1111112
-0.044444446 -0.1 1.1111112
-0.03888889 -0.1 1.1111112
-0.033333335 -0.1 1.1111112
-0.027777778 -0.1 1.1111112
-0.022429906 -0.10093458 1.1214954
-0.016822429 -0.10093458 1.1214954
-0.011214953 -0.10093458 1.1214954
-0.0056603774 -0.10188679 1.1320754
0 -0.10188679 1.1320754
0.0056603774 -0.10188679 1.1320754
0.011320755 -0.10188679 1.1320754
0.016981132 -0.10188679 1.1320754
0.02264151 -0.10188679 1.1320754
0.028301887 -0.10188679 1.1320754
0.034285713 -0.10285714 1.1428572
0.039999999 -0.10285714 1.1428572
0.045714285 -0.10285714 1.1428572
0.051923078 -0.10384616 1.1538461
0.057692308 -0.10384616 1.1538461
0.064077668 -0.10485437 1.1650486
0.069902912 -0.10485437 1.1650486
0.075728156 -0.10485437 1.1650486
0.0815534 -0.10485437 1.1650486
0.089108914 -0.1069307 1.1881188
0.095049508 -0.1069307 1.1881188
0.102 -0.108 1.2
0.10909091 -0.10909091 1.2121212
0.11632653 -0.11020408 1.2244898
0.12244898 -0.11020408 1.2244898
0.13263159 -0.11368421 1.2631578
0.1375 -0.1125 1.25
0.14375 -0.1125 1.25
0.15000001 -0.1125 1.25
0.15789473 -0.11368421 1.2631578
0.19499999 -0.13500001 1.5
0.2025 -0.13500001 1.5
0.20999999 -0.13500001 1.5
0.2175 -0.13500001 1.5
0.22499999 -0.13500001 1.5
0.2325 -0.13500001 1.5
0.23999999 -0.13500001 1.5
0.2475 -0.13500001 1.5
0.255 -0.13500001 1.5
-0.24489796 -0.10408163 1.2244898
-0.23877551 -0.10408163 1.2244898
-0.23265307 -0.10408163 1.2244898
-0.22653061 -0.10408163 1.2244898
-0.21386139 -0.1009901 1.1881188
-0.20792079 -0.1009901 1.1881188
-0.2019802 -0.1009901 1.1881188
-0.19411765 -0.1 1.1764706
-0.1882353 -0.1 1.1764706
-0.17884615 -0.098076925 1.1538461
-0.17307693 -0.098076925 1.1538461
-0.16730769 -0.098076925 1.1538461
-0.16 -0.09714286 1.1428572
-0.15428571 -0.09714286 1.1428572
-0.14716981 -0.096226417 1.1320754
-0.14150943 -0.096226417 1.1320754
-0.13584906 -0.096226417 1.1320754
-0.13018867 -0.096226417 1.1320754
-0.12336449 -0.095327102 1.1214954
-0.11775701 -0.095327102 1.1214954
-0.11214953 -0.095327102 1.1214954
-0.10654206 -0.095327102 1.1214954
-0.10093458 -0.095327102 1.1214954
-0.095327102 -0.095327102 1.1214954
-0.088888891 -0.094444446 1.1111112
-0.083333336 -0.094444446 1.1111112
-0.077777781 -0.094444446 1.1111112
-0.072222225 -0.094444446 1.1111112
-0.06666667 -0.094444446 1.1111112
-0.061111111 -0.094444446 1.1111112
-0.055555556 -0.094444446 1.1111112
-0.050000001 -0.094444446 1.1111112
-0.044444446 -0.094444446 1.1111112
-0.03888889 -0.094444446 1.1111112
-0.033333335 -0.094444446 1.1111112
-0.027777778 -0.094444446 1.1111112
-0.022429906 -0.095327102 1.1214954
-0.016822429 -0.095327102 1.1214954
-0.011214953 -0.095327102 1.1214954
-0.0056074765 -0.095327102 1.1214954
0 -0.095327102 1.1214954
0.0056074765 -0.095327102 1.1214954
0.011320755 -0.096226417 1.1320754
0.016981132 -0.096226417 1.1320754
0.02264151 -0.096226417 1.1320754
0.028301887 -0.096226417 1.1320754
0.033962265 -0.096226417 1.1320754
0.039999999 -0.09714286 1.1428572
0.045714285 -0.09714286 1.1428572
0.051923078 -0.098076925 1.1538461
0.057692308 -0.098076925 1.1538461
0.063461542 -0.098076925 1.1538461
0.069902912 -0.099029124 1.1650486
0.075728156 -0.099029124 1.1650486
0.082352944 -0.1 1.1764706
0.089108914 -0.1009901 1.1881188
0.095049508 -0.1009901 1.1881188
0.102 -0.102 1.2
0.108 -0.102 1.2
0.11632653 -0.10408163 1.2244898
0.12244898 -0.10408163 1.2244898
0.13124999 -0.10625 1.25
0.1375 -0.10625 1.25
0.14375 -0.10625 1.25
0.15157895 -0.10736842 1.2631578
0.15789473 -0.10736842 1.2631578
0.17333333 -0.11333334 1.3333334
0.2025 -0.1275 1.5
0.20999999 -0.1275 1.5
0.2175 -0.1275 1.5
0.22499999 -0.1275 1.5
0.2325 -0.1275 1.5
0.23999999 -0.1275 1.5
0.2475 -0.1275 1.5
0.255 -0.1275 1.5
-0.24489796 -0.097959183 1.2244898
-0.23877551 -0.097959183 1.2244898
-0.23265307 -0.097959183 1.2244898
-0.222 -0.096000001 1.2
-0.21600001 -0.096000001 1.2
-0.20792079 -0.095049508 1.1881188
-0.2019802 -0.095049508 1.1881188
-0.19411765 -0.094117649 1.1764706
-0.1882353 -0.094117649 1.1764706
-0.18058252 -0.09320388 1.1650486
-0.17307693 -0.092307694 1.1538461
-0.16730769 -0.092307694 1.1538461
-0.16 -0.09142857 1.1428572
-0.15428571 -0.09142857 1.1428572
-0.14716981 -0.090566039 1.1320754
-0.14150943 -0.090566039 1.1320754
-0.13584906 -0.090566039 1.1320754
-0.12897196 -0.089719623 1.1214954
-0.12336449 -0.089719623 1.1214954
-0.11775701 -0.089719623 1.1214954
-0.11214953 -0.089719623 1.1214954
-0.10654206 -0.089719623 1.1214954
-0.10093458 -0.089719623 1.1214954
-0.094444446 -0.088888891 1.1111112
-0.088888891 -0.088888891 1.1111112
-0.083333336 -0.088888891 1.1111112
-0.077777781 -0.088888891 1.1111112
-0.072222225 -0.088888891 1.1111112
-0.06666667 -0.088888891 1.1111112
-0.061111111 -0.088888891 1.1111112
-0.055555556 -0.088888891 1.1111112
-0.050000001 -0.088888891 1.1111112
-0.044444446 -0.088888891 1.1111112
-0.03888889 -0.088888891 1.1111112
-0.033333335 -0.088888891 1.1111112
-0.028037382 -0.089719623 1.1214954
-0.022429906 -0.089719623 1.1214954
-0.016822429 -0.089719623 1.1214954
-0.011214953 -0.089719623 1.1214954
-0.0056074765 -0.089719623 1.1214954
0 -0.089719623 1.1214954
0.0056074765 -0.089719623 1.1214954
0.011320755 -0.090566039 1.1320754
0.016981132 -0.090566039 1.1320754
0.02264151 -0.090566039 1.1320754
0.028301887 -0.090566039 1.1320754
0.033962265 -0.090566039 1.1320754
0.039999999 -0.09142857 1.1428572
0.045714285 -0.09142857 1.1428572
0.051428571 -0.09142857 1.1428572
0.057692308 -0.092307694 1.1538461
0.063461542 -0.092307694 1.1538461
0.069230773 -0.092307694 1.1538461
0.075000003 -0.092307694 1.1538461
0.082352944 -0.094117649 1.1764706
0.088235296 -0.094117649 1.1764706
0.095049508 -0.095049508 1.1881188
0.102 -0.096000001 1.2
0.108 -0.096000001 1.2
0.11632653 -0.097959183 1.2244898
0.12244898 -0.097959183 1.2244898
0.13124999 -0.1 1.25
0.1375 -0.1 1.25
0.14526317 -0.10105263 1.2631578
0.15157895 -0.10105263 1.2631578
0.16666667 -0.10666667 1.3333334
0.17333333 -0.10666667 1.3333334
0.18000001 -0.10666667 1.3333334
0.20999999 -0.12 1.5
0.2175 -0.12 1.5
0.22499999 -0.12 1.5
0.2325 -0.12 1.5
0.23999999 -0.12 1.5
0.2475 -0.12 1.5
0.255 -0.12 1.5
0.2658228 -0.12151898 1.5189873
-0.234 -0.090000004 1.2
-0.228 -0.090000004 1.2
-0.222 -0.090000004 1.2
-0.21600001 -0.090000004 1.2
-0.20792079 -0.089108914 1.1881188
-0.2019802 -0.089108914 1.1881188
-0.1960396 -0.089108914 1.1881188
-0.1882353 -0.088235296 1.1764706
-0.18058252 -0.087378643 1.1650486
-0.17307693 -0.086538464 1.1538461
-0.16730769 -0.086538464 1.1538461
-0.16 -0.085714288 1.1428572
-0.15428571 -0.085714288 1.1428572
-0.14716981 -0.084905662 1.1320754
-0.14150943 -0.084905662 1.1320754
-0.13584906 -0.084905662 1.1320754
-0.12897196 -0.084112152 1.1214954
-0.12336449 -0.084112152 1.1214954
-0.11775701 -0.084112152 1.1214954
-0.11214953 -0.084112152 1.1214954
-0.10654206 -0.084112152 1.1214954
-0.1 -0.083333336 1.1111112
-0.094444446 -0.083333336 1.1111112
-0.088888891 -0.083333336 1.1111112
-0.083333336 -0.083333336 1.1111112
-0.077777781 -0.083333336 1.1111112
-0.072222225 -0.083333336 1.1111112
-0.06666667 -0.083333336 1.1111112
-0.061111111 -0.083333336 1.1111112
-0.055555556 -0.083333336 1.1111112
-0.050000001 -0.083333336 1.1111112
-0.044444446 -0.083333336 1.1111112
-0.03888889 -0.083333336 1.1111112
-0.033333335 -0.083333336 1.1111112
-0.027777778 -0.083333336 1.1111112
-0.022429906 -0.084112152 1.1214954
-0.016822429 -0.084112152 1.1214954
-0.011214953 -0.084112152 1.1214954
-0.0056074765 -0.084112152 1.1214954
0 -0.084112152 1.1214954
0.0056074765 -0.084112152 1.1214954
0.011214953 -0.084112152 1.1214954
0.016822429 -0.084112152 1.1214954
0.02264151 -0.084905662 1.1320754
0.028301887 -0.084905662 1.1320754
0.033962265 -0.084905662 1.1320754
0.039622642 -0.084905662 1.1320754
0.045714285 -0.085714288 1.1428572
0.051428571 -0.085714288 1.1428572
0.057692308 -0.086538464 1.1538461
0.063461542 -0.086538464 1.1538461
0.069230773 -0.086538464 1.1538461
0.075728156 -0.087378643 1.1650486
0.0815534 -0.087378643 1.1650486
0.088235296 -0.088235296 1.1764706
0.094117649 -0.088235296 1.1764706
0.1 -0.088235296 1.1764706
0.108 -0.090000004 1.2
0.11515152 -0.090909094 1.2121212
0.12121212 -0.090909094 1.2121212
0.12989691 -0.092783503 1.2371134
0.1375 -0.09375 1.25
0.14526317 -0.094736844 1.2631578
0.15157895 -0.094736844 1.2631578
0.16666667 -0.1 1.3333334
0.17333333 -0.1 1.3333334
0.18000001 -0.1 1.3333334
0.20999999 -0.1125 1.5
0.2175 -0.1125 1.5
0.22499999 -0.1125 1.5
0.2325 -0.1125 1.5
0.23999999 -0.1125 1.5
0.25063291 -0.11392405 1.5189873
0.25822785 -0.11392405 1.5189873
0.2658228 -0.11392405 1.5189873
-0.24242425 -0.084848486 1.2121212
-0.234 -0.083999999 1.2
-0.228 -0.083999999 1.2
-0.222 -0.083999999 1.2
-0.21386139 -0.08316832 1.1881188
-0.20792079 -0.08316832 1.1881188
-0.2019802 -0.08316832 1.1881188
-0.19411765 -0.082352944 1.1764706
-0.1882353 -0.082352944 1.1764706
-0.18058252 -0.0815534 1.1650486
-0.17307693 -0.080769233 1.1538461
-0.16730769 -0.080769233 1.1538461
-0.16 -0.079999998 1.1428572
-0.15428571 -0.079999998 1.1428572
-0.14716981 -0.079245284 1.1320754
-0.14150943 -0.079245284 1.1320754
-0.13584906 -0.079245284 1.1320754
-0.12897196 -0.078504674 1.1214954
-0.12336449 -0.078504674 1.1214954
-0.11775701 -0.078504674 1.1214954
-0.11214953 -0.078504674 1.1214954
-0.10555556 -0.077777781 1.1111112
-0.1 -0.077777781 1.1111112
-0.094444446 -0.077777781 1.1111112
-0.088888891 -0.077777781 1.1111112
-0.083333336 -0.077777781 1.1111112
-0.077777781 -0.077777781 1.1111112
-0.072222225 -0.077777781 1.1111112
-0.06666667 -0.077777781 1.1111112
-0.061111111 -0.077777781 1.1111112
-0.055555556 -0.077777781 1.1111112
-0.050000001 -0.077777781 1.1111112
-0.044444446 -0.077777781 1.1111112
-0.03888889 -0.077777781 1.1111112
-0.033333335 -0.077777781 1.1111112
-0.027777778 -0.077777781 1.1111112
-0.022429906 -0.078504674 1.1214954
-0.016822429 -0.078504674 1.1214954
-0.011214953 -0.078504674 1.1214954
-0.0056074765 -0.078504674 1.1214954
0 -0.078504674 1.1214954
0.0056074765 -0.078504674 1.1214954
0.011214953 -0.078504674 1.1214954
0.016822429 -0.078504674 1.1214954
0.022429906 -0.078504674 1.1214954
0.028301887 -0.079245284 1.1320754
0.033962265 -0.079245284 1.1320754
0.039622642 -0.079245284 1.1320754
0.04528302 -0.079245284 1.1320754
0.051428571 -0.079999998 1.1428572
0.057692308 -0.080769233 1.1538461
0.063461542 -0.080769233 1.1538461
0.069230773 -0.080769233 1.1538461
0.075728156 -0.0815534 1.1650486
0.082352944 -0.082352944 1.1764706
0.088235296 -0.082352944 1.1764706
0.094117649 -0.082352944 1.1764706
0.1 -0.082352944 1.1764706
0.108 -0.083999999 1.2
0.11515152 -0.084848486 1.2121212
0.12121212 -0.084848486 1.2121212
0.12989691 -0.086597942 1.2371134
0.1375 -0.087499999 1.25
0.14375 -0.087499999 1.25
0.15000001 -0.087499999 1.25
0.16666667 -0.093333334 1.3333334
0.17333333 -0.093333334 1.3333334
0.18000001 -0.093333334 1.3333334
0.20999999 -0.105 1.5
0.2175 -0.105 1.5
0.22499999 -0.105 1.5
0.23544304 -0.10632911 1.5189873
0.24303797 -0.10632911 1.5189873
0.25063291 -0.10632911 1.5189873
0.25822785 -0.10632911 1.5189873
0.2658228 -0.10632911 1.5189873
0.27341771 -0.10632911 1.5189873
-0.24242425 -0.078787878 1.2121212
-0.23636363 -0.078787878 1.2121212
-0.228 -0.078000002 1.2
-0.222 -0.078000002 1.2
-0.21600001 -0.078000002 1.2
-0.20792079 -0.077227719 1.1881188
-0.2019802 -0.077227719 1.1881188
-0.19411765 -0.076470591 1.1764706
-0.18640776 -0.075728156 1.1650486
-0.18058252 -0.075728156 1.1650486
-0.17475729 -0.075728156 1.1650486
-0.16730769 -0.075000003 1.1538461
-0.16 -0.074285716 1.1428572
-0.15283018 -0.073584907 1.1320754
-0.14716981 -0.073584907 1.1320754
-0.14150943 -0.073584907 1.1320754
-0.13584906 -0.073584907 1.1320754
-0.12897196 -0.072897196 1.1214954
-0.12336449 -0.072897196 1.1214954
-0.11775701 -0.072897196 1.1214954
-0.11214953 -0.072897196 1.1214954
-0.10555556 -0.072222225 1.1111112
-0.1 -0.072222225 1.1111112
-0.094444446 -0.072222225 1.1111112
-0.088888891 -0.072222225 1.1111112
-0.083333336 -0.072222225 1.1111112
-0.077777781 -0.072222225 1.1111112
-0.072222225 -0.072222225 1.1111112
-0.06666667 -0.072222225 1.1111112
-0.061111111 -0.072222225 1.1111112
-0.055555556 -0.072222225 1.1111112
-0.050000001 -0.072222225 1.1111112
-0.044444446 -0.072222225 1.1111112
-0.03888889 -0.072222225 1.1111112
-0.033333335 -0.072222225 1.1111112
-0.027777778 -0.072222225 1.1111112
-0.022222223 -0.072222225 1.1111112
-0.016822429 -0.072897196 1.1214954
-0.011214953 -0.072897196 1.1214954
-0.0056074765 -0.072897196 1.1214954
0 -0.072897196 1.1214954
0.0056074765 -0.072897196 1.1214954
0.011214953 -0.072897196 1.1214954
0.016822429 -0.072897196 1.1214954
0.02264151 -0.073584907 1.1320754
0.028301887 -0.073584907 1.1320754
0.033962265 -0.073584907 1.1320754
0.039622642 -0.073584907 1.1320754
0.045714285 -0.074285716 1.1428572
0.051428571 -0.074285716 1.1428572
0.057142857 -0.074285716 1.1428572
0.063461542 -0.075000003 1.1538461
0.069230773 -0.075000003 1.1538461
0.075728156 -0.075728156 1.1650486
0.0815534 -0.075728156 1.1650486
0.088235296 -0.076470591 1.1764706
0.094117649 -0.076470591 1.1764706
0.1 -0.076470591 1.1764706
0.108 -0.078000002 1.2
0.11515152 -0.078787878 1.2121212
0.12121212 -0.078787878 1.2121212
0.12989691 -0.080412373 1.2371134
0.1375 -0.081249997 1.25
0.14375 -0.081249997 1.25
0.15157895 -0.082105264 1.2631578
0.16304348 -0.084782608 1.3043479
0.16956522 -0.084782608 1.3043479
0.18000001 -0.086666666 1.3333334
0.20999999 -0.097499996 1.5
0.2175 -0.097499996 1.5
0.2278481 -0.098734178 1.5189873
0.23544304 -0.098734178 1.5189873
0.24303797 -0.098734178 1.5189873
0.25063291 -0.098734178 1.5189873
0.25822785 -0.098734178 1.5189873
0.2658228 -0.098734178 1.5189873
-0.24848485 -0.07272727 1.2121212
-0.24242425 -0.07272727 1.2121212
-0.23636363 -0.07272727 1.2121212
-0.23030303 -0.07272727 1.2121212
-0.222 -0.071999997 1.2
-0.21600001 -0.071999997 1.2
-0.20792079 -0.071287125 1.1881188
-0.2019802 -0.071287125 1.1881188
-0.19411765 -0.070588239 1.1764706
-0.18640776 -0.069902912 1.1650486
-0.18058252 -0.069902912 1.1650486
-0.17307693 -0.069230773 1.1538461
-0.16730769 -0.069230773 1.1538461
-0.16153847 -0.069230773 1.1538461
-0.15283018 -0.067924529 1.1320754
-0.14716981 -0.067924529 1.1320754
-0.14150943 -0.067924529 1.1320754
-0.13584906 -0.067924529 1.1320754
-0.12897196 -0.067289717 1.1214954
-0.12336449 -0.067289717 1.1214954
-0.11775701 -0.067289717 1.1214954
-0.11214953 -0.067289717 1.1214954
-0.10654206 -0.067289717 1.1214954
-0.1 -0.06666667 1.1111112
-0.094444446 -0.06666667 1.1111112
-0.088888891 -0.06666667 1.1111112
-0.083333336 -0.06666667 1.1111112
-0.077777781 -0.06666667 1.1111112
-0.072222225 -0.06666667 1.1111112
-0.06666667 -0.06666667 1.1111112
-0.061111111 -0.06666667 1.1111112
-0.055555556 -0.06666667 1.1111112
-0.050000001 -0.06666667 1.1111112
-0.044444446 -0.06666667 1.1111112
-0.03888889 -0.06666667 1.1111112
-0.033333335 -0.06666667 1.1111112
-0.027777778 -0.06666667 1.1111112
-0.022222223 -0.06666667 1.1111112
-0.016666668 -0.06666667 1.1111112
-0.011111111 -0.06666667 1.1111112
-0.0056074765 -0.067289717 1.1214954
0 -0.067289717 1.1214954
0.0056074765 -0.067289717 1.1214954
0.011214953 -0.067289717 1.1214954
0.016981132 -0.067924529 1.1320754
0.02264151 -0.067924529 1.1320754
0.028301887 -0.067924529 1.1320754
0.033962265 -0.067924529 1.1320754
0.039999999 -0.068571426 1.1428572
0.045714285 -0.068571426 1.1428572
0.051428571 -0.068571426 1.1428572
0.057142857 -0.068571426 1.1428572
0.063461542 -0.069230773 1.1538461
0.069902912 -0.069902912 1.1650486
0.075728156 -0.069902912 1.1650486
0.0815534 -0.069902912 1.1650486
0.087378643 -0.069902912 1.1650486
0.095049508 -0.071287125 1.1881188
0.1009901 -0.071287125 1.1881188
0.1069307 -0.071287125 1.1881188
0.114 -0.071999997 1.2
0.12371134 -0.074226804 1.2371134
0.12989691 -0.074226804 1.2371134
0.13608247 -0.074226804 1.2371134
0.14375 -0.075000003 1.25
0.15157895 -0.075789474 1.2631578
0.16304348 -0.078260869 1.3043479
0.16956522 -0.078260869 1.3043479
0.2025 -0.090000004 1.5
0.20999999 -0.090000004 1.5
0.2175 -0.090000004 1.5
0.22499999 -0.090000004 1.5
0.23544304 -0.091139242 1.5189873
0.24303797 -0.091139242 1.5189873
0.25063291 -0.091139242 1.5189873
0.26153848 -0.092307694 1.5384616
0.26923078 -0.092307694 1.5384616
-0.24242425 -0.06666667 1.2121212
-0.23636363 -0.06666667 1.2121212
-0.23030303 -0.06666667 1.2121212
-0.22424242 -0.06666667 1.2121212
-0.21600001 -0.066 1.2
-0.20792079 -0.065346532 1.1881188
-0.2019802 -0.065346532 1.1881188
-0.19411765 -0.064705886 1.1764706
-0.1882353 -0.064705886 1.1764706
-0.17884615 -0.063461542 1.1538461
-0.17307693 -0.063461542 1.1538461
-0.16730769 -0.063461542 1.1538461
-0.16153847 -0.063461542 1.1538461
-0.15283018 -0.062264152 1.1320754
-0.14716981 -0.062264152 1.1320754
-0.14150943 -0.062264152 1.1320754
-0.13584906 -0.062264152 1.1320754
-0.12897196 -0.061682243 1.1214954
-0.12336449 -0.061682243 1.1214954
-0.11775701 -0.061682243 1.1214954
-0.11214953 -0.061682243 1.1214954
-0.10654206 -0.061682243 1.1214954
-0.1 -0.061111111 1.1111112
-0.094444446 -0.061111111 1.1111112
-0.088888891 -0.061111111 1.1111112
-0.083333336 -0.061111111 1.1111112
-0.077777781 -0.061111111 1.1111112
-0.072222225 -0.061111111 1.1111112
-0.06666667 -0.061111111 1.1111112
-0.061111111 -0.061111111 1.1111112
-0.055555556 -0.061111111 1.1111112
-0.050000001 -0.061111111 1.1111112
-0.044444446 -0.061111111 1.1111112
-0.03888889 -0.061111111 1.1111112
-0.033333335 -0.061111111 1.1111112
-0.027777778 -0.061111111 1.1111112
-0.022222223 -0.061111111 1.1111112
-0.016666668 -0.061111111 1.1111112
-0.011111111 -0.061111111 1.1111112
-0.0056074765 -0.061682243 1.1214954
0 -0.061682243 1.1214954
0.0056074765 -0.061682243 1.1214954
0.011214953 -0.061682243 1.1214954
0.016822429 -0.061682243 1.1214954
0.022429906 -0.061682243 1.1214954
0.028037382 -0.061682243 1.1214954
0.033962265 -0.062264152 1.1320754
0.039622642 -0.062264152 1.1320754
0.04528302 -0.062264152 1.1320754
0.051428571 -0.062857144 1.1428572
0.057692308 -0.063461542 1.1538461
0.063461542 -0.063461542 1.1538461
0.069230773 -0.063461542 1.1538461
0.075728156 -0.064077668 1.1650486
0.0815534 -0.064077668 1.1650486
0.087378643 -0.064077668 1.1650486
0.095049508 -0.065346532 1.1881188
0.1009901 -0.065346532 1.1881188
0.1069307 -0.065346532 1.1881188
0.114 -0.066 1.2
0.12121212 -0.06666667 1.2121212
0.12989691 -0.068041235 1.2371134
0.13608247 -0.068041235 1.2371134
0.14375 -0.068750001 1.25
0.15157895 -0.069473684 1.2631578
0.16304348 -0.07173913 1.3043479
0.16956522 -0.07173913 1.3043479
0.2025 -0.082500003 1.5
0.20999999 -0.082500003 1.5
0.2175 -0.082500003 1.5
0.22499999 -0.082500003 1.5
0.2325 -0.082500003 1.5
0.24303797 -0.083544306 1.5189873
0.25384617 -0.084615387 1.5384616
0.26153848 -0.084615387 1.5384616
0.26923078 -0.084615387 1.5384616
0.27692309 -0.084615387 1.5384616
-0.24242425 -0.060606062 1.2121212
-0.23636363 -0.060606062 1.2121212
-0.23030303 -0.060606062 1.2121212
-0.22424242 -0.060606062 1.2121212
-0.21818182 -0.060606062 1.2121212
-0.20792079 -0.059405942 1.1881188
-0.2 -0.05882353 1.1764706
-0.19411765 -0.05882353 1.1764706
-0.1882353 -0.05882353 1.1764706
-0.17884615 -0.057692308 1.1538461
-0.17307693 -0.057692308 1.1538461
-0.16730769 -0.057692308 1.1538461
-0.16153847 -0.057692308 1.1538461
-0.15283018 -0.056603774 1.1320754
-0.14716981 -0.056603774 1.1320754
-0.14150943 -0.056603774 1.1320754
-0.13584906 -0.056603774 1.1320754
-0.13018867 -0.056603774 1.1320754
-0.12336449 -0.056074765 1.1214954
-0.11775701 -0.056074765 1.1214954
-0.11214953 -0.056074765 1.1214954
-0.10654206 -0.056074765 1.1214954
-0.10093458 -0.056074765 1.1214954
-0.094444446 -0.055555556 1.1111112
-0.088888891 -0.055555556 1.1111112
-0.083333336 -0.055555556 1.1111112
-0.077777781 -0.055555556 1.1111112
-0.072222225 -0.055555556 1.1111112
-0.06666667 -0.055555556 1.1111112
-0.061111111 -0.055555556 1.1111112
-0.055555556 -0.055555556 1.1111112
-0.050000001 -0.055555556 1.1111112
-0.044444446 -0.055555556 1.1111112
-0.03888889 -0.055555556 1.1111112
-0.033333335 -0.055555556 1.1111112
-0.027777778 -0.055555556 1.1111112
-0.022222223 -0.055555556 1.1111112
-0.016666668 -0.055555556 1.1111112
-0.011111111 -0.055555556 1.1111112
-0.0055555557 -0.055555556 1.1111112
0 -0.055555556 1.1111112
0.0056074765 -0.056074765 1.1214954
0.011214953 -0.056074765 1.1214954
0.016822429 -0.056074765 1.1214954
0.022429906 -0.056074765 1.1214954
0.028037382 -0.056074765 1.1214954
0.033962265 -0.056603774 1.1320754
0.039622642 -0.056603774 1.1320754
0.04528302 -0.056603774 1.1320754
0.051428571 -0.057142857 1.1428572
0.057142857 -0.057142857 1.1428572
0.063461542 -0.057692308 1.1538461
0.069230773 -0.057692308 1.1538461
0.075728156 -0.058252428 1.1650486
0.0815534 -0.058252428 1.1650486
0.087378643 -0.058252428 1.1650486
0.094117649 -0.05882353 1.1764706
0.1009901 -0.059405942 1.1881188
0.1069307 -0.059405942 1.1881188
0.114 -0.059999999 1.2
0.12121212 -0.060606062 1.2121212
0.12857144 -0.06122449 1.2244898
0.13608247 -0.06185567 1.2371134
0.14226805 -0.06185567 1.2371134
0.15000001 -0.0625 1.25
0.15957446 -0.063829787 1.2765957
0.16595745 -0.063829787 1.2765957
0.2025 -0.075000003 1.5
0.20999999 -0.075000003 1.5
0.2175 -0.075000003 1.5
0.22499999 -0.075000003 1.5
0.2325 -0.075000003 1.5
0.24615385 -0.07692308 1.5384616
0.25384617 -0.07692308 1.5384616
0.26153848 -0.07692308 1.5384616
0.26923078 -0.07692308 1.5384616
-0.24848485 -0.054545455 1.2121212
-0.24242425 -0.054545455 1.2121212
-0.23636363 -0.054545455 1.2121212
-0.23030303 -0.054545455 1.2121212
-0.22424242 -0.054545455 1.2121212
-0.21818182 -0.054545455 1.2121212
-0.20999999 -0.054000001 1.2
-0.2 -0.052941177 1.1764706
-0.19411765 -0.052941177 1.1764706
-0.1882353 -0.052941177 1.1764706
-0.17884615 -0.051923078 1.1538461
-0.17307693 -0.051923078 1.1538461
-0.16730769 -0.051923078 1.1538461
-0.16 -0.051428571 1.1428572
-0.15428571 -0.051428571 1.1428572
-0.14716981 -0.050943397 1.1320754
-0.14150943 -0.050943397 1.1320754
-0.13584906 -0.050943397 1.1320754
-0.13018867 -0.050943397 1.1320754
-0.1245283 -0.050943397 1.1320754
-0.11775701 -0.05046729 1.1214954
-0.11214953 -0.05046729 1.1214954
-0.10654206 -0.05046729 1.1214954
-0.10093458 -0.05046729 1.1214954
-0.095327102 -0.05046729 1.1214954
-0.089719623 -0.05046729 1.1214954
-0.083333336 -0.050000001 1.1111112
-0.077777781 -0.050000001 1.1111112
-0.072222225 -0.050000001 1.1111112
-0.06666667 -0.050000001 1.1111112
-0.061111111 -0.050000001 1.1111112
-0.055555556 -0.050000001 1.1111112
-0.050000001 -0.050000001 1.1111112
-0.044444446 -0.050000001 1.1111112
-0.03888889 -0.050000001 1.1111112
-0.033333335 -0.050000001 1.1111112
-0.027777778 -0.050000001 1.1111112
-0.022222223 -0.050000001 1.1111112
-0.016666668 -0.050000001 1.1111112
-0.011111111 -0.050000001 1.1111112
-0.0055555557 -0.050000001 1.1111112
0 -0.050000001 1.1111112
0.0056074765 -0.05046729 1.1214954
0.011214953 -0.05046729 1.1214954
0.016822429 -0.05046729 1.1214954
0.022429906 -0.05046729 1.1214954
0.028037382 -0.05046729 1.1214954
0.033644859 -0.05046729 1.1214954
0.039622642 -0.050943397 1.1320754
0.04528302 -0.050943397 1.1320754
0.051428571 -0.051428571 1.1428572
0.057142857 -0.051428571 1.1428572
0.062857144 -0.051428571 1.1428572
0.069230773 -0.051923078 1.1538461
0.075728156 -0.052427184 1.1650486
0.0815534 -0.052427184 1.1650486
0.087378643 -0.052427184 1.1650486
0.094117649 -0.052941177 1.1764706
0.1 -0.052941177 1.1764706
0.1069307 -0.053465348 1.1881188
0.114 -0.054000001 1.2
0.12244898 -0.055102039 1.2244898
0.12857144 -0.055102039 1.2244898
0.13608247 -0.055670105 1.2371134
0.14375 -0.056249999 1.25
0.15000001 -0.056249999 1.25
0.15957446 -0.057446808 1.2765957
0.16595745 -0.057446808 1.2765957
0.17234042 -0.057446808 1.2765957
0.20999999 -0.067500003 1.5
0.2175 -0.067500003 1.5
0.22499999 -0.067500003 1.5
0.23846154 -0.069230773 1.5384616
0.24615385 -0.069230773 1.5384616
0.25384617 -0.069230773 1.5384616
0.26153848 -0.069230773 1.5384616
0.26923078 -0.069230773 1.5384616
-0.2510204 -0.048979592 1.2244898
-0.24489796 -0.048979592 1.2244898
-0.23877551 -0.048979592 1.2244898
-0.23265307 -0.048979592 1.2244898
-0.22424242 -0.048484847 1.2121212
-0.21600001 -0.048 1.2
-0.20999999 -0.048 1.2
-0.204 -0.048 1.2
-0.19411765 -0.047058824 1.1764706
-0.1882353 -0.047058824 1.1764706
-0.18058252 -0.04660194 1.1650486
-0.17475729 -0.04660194 1.1650486
-0.16571428 -0.045714285 1.1428572
-0.16 -0.045714285 1.1428572
-0.15428571 -0.045714285 1.1428572
-0.14857143 -0.045714285 1.1428572
-0.14150943 -0.04528302 1.1320754
-0.13584906 -0.04528302 1.1320754
-0.13018867 -0.04528302 1.1320754
-0.1245283 -0.04528302 1.1320754
-0.11775701 -0.044859812 1.1214954
-0.11214953 -0.044859812 1.1214954
-0.10654206 -0.044859812 1.1214954
-0.10093458 -0.044859812 1.1214954
-0.095327102 -0.044859812 1.1214954
-0.089719623 -0.044859812 1.1214954
-0.083333336 -0.044444446 1.1111112
-0.077777781 -0.044444446 1.1111112
-0.072222225 -0.044444446 1.1111112
-0.06666667 -0.044444446 1.1111112
-0.061111111 -0.044444446 1.1111112
-0.055555556 -0.044444446 1.1111112
-0.049541283 -0.044036698 1.1009175
-0.044036698 -0.044036698 1.1009175
-0.038532112 -0.044036698 1.1009175
-0.033333335 -0.044444446 1.1111112
-0.027777778 -0.044444446 1.1111112
-0.022222223 -0.044444446 1.1111112
-0.016666668 -0.044444446 1.1111112
-0.011111111 -0.044444446 1.1111112
-0.0055555557 -0.044444446 1.1111112
0 -0.044444446 1.1111112
0.0055555557 -0.044444446 1.1111112
0.011111111 -0.044444446 1.1111112
0.016666668 -0.044444446 1.1111112
0.022222223 -0.044444446 1.1111112
0.028037382 -0.044859812 1.1214954
0.033644859 -0.044859812 1.1214954
0.039252337 -0.044859812 1.1214954
0.04528302 -0.04528302 1.1320754
0.051428571 -0.045714285 1.1428572
0.057142857 -0.045714285 1.1428572
0.063461542 -0.046153847 1.1538461
0.069230773 -0.046153847 1.1538461
0.075000003 -0.046153847 1.1538461
0.0815534 -0.04660194 1.1650486
0.088235296 -0.047058824 1.1764706
0.094117649 -0.047058824 1.1764706
0.1 -0.047058824 1.1764706
0.1069307 -0.047524754 1.1881188
0.114 -0.048 1.2
0.12121212 -0.048484847 1.2121212
0.12989691 -0.049484536 1.2371134
0.13608247 -0.049484536 1.2371134
0.14375 -0.050000001 1.25
0.15000001 -0.050000001 1.25
0.15957446 -0.051063828 1.2765957
0.16595745 -0.051063828 1.2765957
0.17234042 -0.051063828 1.2765957
0.20999999 -0.059999999 1.5
0.25384617 -0.061538462 1.5384616
-0.24489796 -0.042857144 1.2244898
-0.23877551 -0.042857144 1.2244898
-0.23265307 -0.042857144 1.2244898
-0.22424242 -0.042424243 1.2121212
-0.21600001 -0.041999999 1.2
-0.20999999 -0.041999999 1.2
-0.2019802 -0.04158416 1.1881188
-0.1960396 -0.04158416 1.1881188
-0.19009902 -0.04158416 1.1881188
-0.18058252 -0.0407767 1.1650486
-0.17475729 -0.0407767 1.1650486
-0.16730769 -0.040384617 1.1538461
-0.16153847 -0.040384617 1.1538461
-0.15428571 -0.039999999 1.1428572
-0.14857143 -0.039999999 1.1428572
-0.14150943 -0.039622642 1.1320754
-0.13584906 -0.039622642 1.1320754
-0.13018867 -0.039622642 1.1320754
-0.12336449 -0.039252337 1.1214954
-0.11775701 -0.039252337 1.1214954
-0.11214953 -0.039252337 1.1214954
-0.10654206 -0.039252337 1.1214954
-0.10093458 -0.039252337 1.1214954
-0.095327102 -0.039252337 1.1214954
-0.089719623 -0.039252337 1.1214954
-0.083333336 -0.03888889 1.1111112
-0.077777781 -0.03888889 1.1111112
-0.072222225 -0.03888889 1.1111112
-0.06666667 -0.03888889 1.1111112
-0.061111111 -0.03888889 1.1111112
-0.055555556 -0.03888889 1.1111112
-0.049541283 -0.038532112 1.1009175
-0.044036698 -0.038532112 1.1009175
-0.038532112 -0.038532112 1.1009175
-0.033027522 -0.038532112 1.1009175
-0.027522936 -0.038532112 1.1009175
-0.022018349 -0.038532112 1.1009175
-0.016666668 -0.03888889 1.1111112
-0.010909091 -0.038181819 1.0909091
-0.0054545454 -0.038181819 1.0909091
0 -0.038181819 1.0909091
0.0055555557 -0.03888889 1.1111112
0.011111111 -0.03888889 1.1111112
0.016666668 -0.03888889 1.1111112
0.022222223 -0.03888889 1.1111112
0.028037382 -0.039252337 1.1214954
0.033644859 -0.039252337 1.1214954
0.039252337 -0.039252337 1.1214954
0.044036698 -0.038532112 1.1009175
0.050000001 -0.03888889 1.1111112
0.057142857 -0.039999999 1.1428572
0.062857144 -0.039999999 1.1428572
0.069230773 -0.040384617 1.1538461
0.075728156 -0.0407767 1.1650486
0.0815534 -0.0407767 1.1650486
0.087378643 -0.0407767 1.1650486
0.094117649 -0.041176472 1.1764706
0.1 -0.041176472 1.1764706
0.1069307 -0.04158416 1.1881188
0.114 -0.041999999 1.2
0.12121212 -0.042424243 1.2121212
0.12727273 -0.042424243 1.2121212
0.13608247 -0.043298971 1.2371134
0.14226805 -0.043298971 1.2371134
0.15000001 -0.043749999 1.25
0.15625 -0.043749999 1.25
0.16249999 -0.043749999 1.25
0.17234042 -0.044680852 1.2765957
-0.24489796 -0.036734693 1.2244898
-0.23636363 -0.036363635 1.2121212
-0.23030303 -0.036363635 1.2121212
-0.22424242 -0.036363635 1.2121212
-0.21600001 -0.035999998 1.2
-0.20999999 -0.035999998 1.2
-0.2019802 -0.035643563 1.1881188
-0.1960396 -0.035643563 1.1881188
-0.19009902 -0.035643563 1.1881188
-0.18058252 -0.034951456 1.1650486
-0.17475729 -0.034951456 1.1650486
-0.16730769 -0.034615386 1.1538461
-0.16153847 -0.034615386 1.1538461
-0.15428571 -0.034285713 1.1428572
-0.14857143 -0.034285713 1.1428572
-0.14285715 -0.034285713 1.1428572
-0.13584906 -0.033962265 1.1320754
-0.13018867 -0.033962265 1.1320754
-0.12336449 -0.033644859 1.1214954
-0.11775701 -0.033644859 1.1214954
-0.11214953 -0.033644859 1.1214954
-0.10654206 -0.033644859 1.1214954
-0.10093458 -0.033644859 1.1214954
-0.095327102 -0.033644859 1.1214954
-0.089719623 -0.033644859 1.1214954
-0.083333336 -0.033333335 1.1111112
-0.077777781 -0.033333335 1.1111112
-0.072222225 -0.033333335 1.1111112
-0.06666667 -0.033333335 1.1111112
-0.061111111 -0.033333335 1.1111112
-0.055555556 -0.033333335 1.1111112
-0.049541283 -0.033027522 1.1009175
-0.044036698 -0.033027522 1.1009175
-0.038181819 -0.032727271 1.0909091
-0.032727271 -0.032727271 1.0909091
-0.027522936 -0.033027522 1.1009175
-0.021428572 -0.032142859 1.0714285
-0.016363636 -0.032727271 1.0909091
-0.010909091 -0.032727271 1.0909091
-0.0054545454 -0.032727271 1.0909091
0 -0.032727271 1.0909091
0.0054545454 -0.032727271 1.0909091
0.010714286 -0.032142859 1.0714285
0.016071429 -0.032142859 1.0714285
0.021428572 -0.032142859 1.0714285
0.027027028 -0.032432433 1.081081
0.032432433 -0.032432433 1.081081
0.038532112 -0.033027522 1.1009175
0.044036698 -0.033027522 1.1009175
0.050000001 -0.033333335 1.1111112
0.055555556 -0.033333335 1.1111112
0.062857144 -0.034285713 1.1428572
0.068571426 -0.034285713 1.1428572
0.074285716 -0.034285713 1.1428572
0.080769233 -0.034615386 1.1538461
0.086538464 -0.034615386 1.1538461
0.094117649 -0.035294119 1.1764706
0.1 -0.035294119 1.1764706
0.1069307 -0.035643563 1.1881188
0.114 -0.035999998 1.2
0.12121212 -0.036363635 1.2121212
0.12857144 -0.036734693 1.2244898
0.13469388 -0.036734693 1.2244898
0.14226805 -0.037113402 1.2371134
0.15000001 -0.037500001 1.25
0.15625 -0.037500001 1.25
0.16421053 -0.037894737 1.2631578
0.17052631 -0.037894737 1.2631578
-0.23636363 -0.030303031 1.2121212
-0.23030303 -0.030303031 1.2121212
-0.22424242 -0.030303031 1.2121212
-0.21600001 -0.029999999 1.2
-0.20999999 -0.029999999 1.2
-0.2019802 -0.029702971 1.1881188
-0.1960396 -0.029702971 1.1881188
-0.19009902 -0.029702971 1.1881188
-0.18235295 -0.029411765 1.1764706
-0.17475729 -0.029126214 1.1650486
-0.16730769 -0.028846154 1.1538461
-0.16 -0.028571429 1.1428572
-0.15428571 -0.028571429 1.1428572
-0.14857143 -0.028571429 1.1428572
-0.14150943 -0.028301887 1.1320754
-0.13584906 -0.028301887 1.1320754
-0.13018867 -0.028301887 1.1320754
-0.1245283 -0.028301887 1.1320754
-0.11775701 -0.028037382 1.1214954
-0.11214953 -0.028037382 1.1214954
-0.10654206 -0.028037382 1.1214954
-0.10093458 -0.028037382 1.1214954
-0.095327102 -0.028037382 1.1214954
-0.089719623 -0.028037382 1.1214954
-0.083333336 -0.027777778 1.1111112
-0.077777781 -0.027777778 1.1111112
-0.07155963 -0.027522936 1.1009175
-0.06666667 -0.027777778 1.1111112
-0.061111111 -0.027777778 1.1111112
-0.054545455 -0.027272727 1.0909091
-0.049541283 -0.027522936 1.1009175
-0.044036698 -0.027522936 1.1009175
-0.038181819 -0.027272727 1.0909091
-0.032727271 -0.027272727 1.0909091
-0.026785715 -0.026785715 1.0714285
-0.021428572 -0.026785715 1.0714285
-0.016071429 -0.026785715 1.0714285
-0.010619469 -0.026548672 1.0619469
-0.0053097345 -0.026548672 1.0619469
0 -0.026548672 1.0619469
0.0053097345 -0.026548672 1.0619469
0.010714286 -0.026785715 1.0714285
0.016071429 -0.026785715 1.0714285
0.021428572 -0.026785715 1.0714285
0.027027028 -0.027027028 1.081081
0.032432433 -0.027027028 1.081081
0.038181819 -0.027272727 1.0909091
0.044036698 -0.027522936 1.1009175
0.050000001 -0.027777778 1.1111112
0.055555556 -0.027777778 1.1111112
0.061111111 -0.027777778 1.1111112
0.068571426 -0.028571429 1.1428572
0.074285716 -0.028571429 1.1428572
0.079999998 -0.028571429 1.1428572
0.086538464 -0.028846154 1.1538461
0.09320388 -0.029126214 1.1650486
0.1 -0.029411765 1.1764706
0.1069307 -0.029702971 1.1881188
0.114 -0.029999999 1.2
0.12121212 -0.030303031 1.2121212
0.12857144 -0.030612245 1.2244898
0.13469388 -0.030612245 1.2244898
0.14081633 -0.030612245 1.2244898
0.15000001 -0.03125 1.25
0.15789473 -0.031578947 1.2631578
0.16421053 -0.031578947 1.2631578
0.17052631 -0.031578947 1.2631578
0.17684211 -0.031578947 1.2631578
-0.24489796 -0.024489796 1.2244898
-0.23877551 -0.024489796 1.2244898
-0.23265307 -0.024489796 1.2244898
-0.22653061 -0.024489796 1.2244898
-0.22040816 -0.024489796 1.2244898
-0.20999999 -0.024 1.2
-0.204 -0.024 1.2
-0.198 -0.024 1.2
-0.1882353 -0.023529412 1.1764706
-0.18235295 -0.023529412 1.1764706
-0.17647059 -0.023529412 1.1764706
-0.16893204 -0.02330097 1.1650486
-0.16153847 -0.023076924 1.1538461
-0.15428571 -0.022857143 1.1428572
-0.14857143 -0.022857143 1.1428572
-0.14150943 -0.02264151 1.1320754
-0.13584906 -0.02264151 1.1320754
-0.13018867 -0.02264151 1.1320754
-0.1245283 -0.02264151 1.1320754
-0.11886793 -0.02264151 1.1320754
-0.11214953 -0.022429906 1.1214954
-0.10654206 -0.022429906 1.1214954
-0.10093458 -0.022429906 1.1214954
-0.095327102 -0.022429906 1.1214954
-0.088888891 -0.022222223 1.1111112
-0.083333336 -0.022222223 1.1111112
-0.077777781 -0.022222223 1.1111112
-0.07155963 -0.022018349 1.1009175
-0.066055045 -0.022018349 1.1009175
-0.059999999 -0.021818181 1.0909091
-0.054545455 -0.021818181 1.0909091
-0.048214287 -0.021428572 1.0714285
-0.042857144 -0.021428572 1.0714285
-0.037500001 -0.021428572 1.0714285
-0.031858407 -0.021238938 1.0619469
-0.026785715 -0.021428572 1.0714285
-0.021428572 -0.021428572 1.0714285
-0.015929203 -0.021238938 1.0619469
-0.010619469 -0.021238938 1.0619469
-0.0053097345 -0.021238938 1.0619469
0 -0.021238938 1.0619469
0.0053097345 -0.021238938 1.0619469
0.010714286 -0.021428572 1.0714285
0.016071429 -0.021428572 1.0714285
0.021428572 -0.021428572 1.0714285
0.027027028 -0.021621622 1.081081
0.032432433 -0.021621622 1.081081
0.038181819 -0.021818181 1.0909091
0.043243244 -0.021621622 1.081081
0.048648648 -0.021621622 1.081081
0.054545455 -0.021818181 1.0909091
0.059999999 -0.021818181 1.0909091
0.065454543 -0.021818181 1.0909091
0.074285716 -0.022857143 1.1428572
0.079999998 -0.022857143 1.1428572
0.084905662 -0.02264151 1.1320754
0.09320388 -0.02330097 1.1650486
0.099029124 -0.02330097 1.1650486
0.1069307 -0.023762377 1.1881188
0.114 -0.024 1.2
0.12 -0.024 1.2
0.12857144 -0.024489796 1.2244898
0.13469388 -0.024489796 1.2244898
0.14081633 -0.024489796 1.2244898
0.15157895 -0.025263159 1.2631578
0.15789473 -0.025263159 1.2631578
0.16421053 -0.025263159 1.2631578
0.17052631 -0.025263159 1.2631578
-0.23877551 -0.018367346 1.2244898
-0.23265307 -0.018367346 1.2244898
-0.22653061 -0.018367346 1.2244898
-0.22040816 -0.018367346 1.2244898
-0.20999999 -0.017999999 1.2
-0.204 -0.017999999 1.2
-0.1960396 -0.017821781 1.1881188
-0.19009902 -0.017821781 1.1881188
-0.18235295 -0.01764706 1.1764706
-0.17475729 -0.017475728 1.1650486
-0.16893204 -0.017475728 1.1650486
-0.16153847 -0.017307693 1.1538461
-0.15576923 -0.017307693 1.1538461
-0.14857143 -0.017142856 1.1428572
-0.14285715 -0.017142856 1.1428572
-0.13714285 -0.017142856 1.1428572
-0.13018867 -0.016981132 1.1320754
-0.1245283 -0.016981132 1.1320754
-0.11886793 -0.016981132 1.1320754
-0.11214953 -0.016822429 1.1214954
-0.10654206 -0.016822429 1.1214954
-0.10093458 -0.016822429 1.1214954
-0.095327102 -0.016822429 1.1214954
-0.088888891 -0.016666668 1.1111112
-0.083333336 -0.016666668 1.1111112
-0.077777781 -0.016666668 1.1111112
-0.07155963 -0.016513761 1.1009175
-0.066055045 -0.016513761 1.1009175
-0.057894737 -0.015789473 1.0526316
-0.053097345 -0.015929203 1.0619469
-0.04778761 -0.015929203 1.0619469
-0.042857144 -0.016071429 1.0714285
-0.037168141 -0.015929203 1.0619469
-0.031858407 -0.015929203 1.0619469
-0.02631579 -0.015789473 1.0526316
-0.021052632 -0.015789473 1.0526316
-0.015789473 -0.015789473 1.0526316
-0.010619469 -0.015929203 1.0619469
-0.0053097345 -0.015929203 1.0619469
0 -0.015929203 1.0619469
0.0053097345 -0.015929203 1.0619469
0.010714286 -0.016071429 1.0714285
0.015929203 -0.015929203 1.0619469
0.021428572 -0.016071429 1.0714285
0.026785715 -0.016071429 1.0714285
0.032142859 -0.016071429 1.0714285
0.037837837 -0.016216217 1.081081
0.043243244 -0.016216217 1.081081
0.048648648 -0.016216217 1.081081
0.054545455 -0.016363636 1.0909091
0.059999999 -0.016363636 1.0909091
0.065454543 -0.016363636 1.0909091
0.07090909 -0.016363636 1.0909091
0.079245284 -0.016981132 1.1320754
0.084905662 -0.016981132 1.1320754
0.090566039 -0.016981132 1.1320754
0.1 -0.01764706 1.1764706
0.10588235 -0.01764706 1.1764706
0.11176471 -0.01764706 1.1764706
0.12121212 -0.018181818 1.2121212
0.12727273 -0.018181818 1.2121212
0.13469388 -0.018367346 1.2244898
0.14081633 -0.018367346 1.2244898
0.15157895 -0.018947368 1.2631578
0.15789473 -0.018947368 1.2631578
0.16421053 -0.018947368 1.2631578
0.17052631 -0.018947368 1.2631578
-0.23877551 -0.012244898 1.2244898
-0.23265307 -0.012244898 1.2244898
-0.22653061 -0.012244898 1.2244898
-0.21818182 -0.012121212 1.2121212
-0.21212122 -0.012121212 1.2121212
-0.204 -0.012 1.2
-0.1960396 -0.011881188 1.1881188
-0.19009902 -0.011881188 1.1881188
-0.18235295 -0.011764706 1.1764706
-0.17475729 -0.011650485 1.1650486
-0.16893204 -0.011650485 1.1650486
-0.16153847 -0.011538462 1.1538461
-0.15576923 -0.011538462 1.1538461
-0.14857143 -0.011428571 1.1428572
-0.14285715 -0.011428571 1.1428572
-0.13714285 -0.011428571 1.1428572
-0.13018867 -0.011320755 1.1320754
-0.1245283 -0.011320755 1.1320754
-0.11886793 -0.011320755 1.1320754
-0.11214953 -0.011214953 1.1214954
-0.10555556 -0.011111111 1.1111112
-0.10093458 -0.011214953 1.1214954
-0.094444446 -0.011111111 1.1111112
-0.088888891 -0.011111111 1.1111112
-0.083333336 -0.011111111 1.1111112
-0.075675674 -0.010810811 1.081081
-0.07027027 -0.010810811 1.081081
-0.064864866 -0.010810811 1.081081
-0.057894737 -0.010526316 1.0526316
-0.052631579 -0.010526316 1.0526316
-0.04778761 -0.010619469 1.0619469
-0.042477876 -0.010619469 1.0619469
-0.037168141 -0.010619469 1.0619469
-0.031578947 -0.010526316 1.0526316
-0.02631579 -0.010526316 1.0526316
-0.021052632 -0.010526316 1.0526316
-0.015789473 -0.010526316 1.0526316
-0.010526316 -0.010526316 1.0526316
-0.0052631581 -0.010526316 1.0526316
0 -0.010619469 1.0619469
0.0053097345 -0.010619469 1.0619469
0.010619469 -0.010619469 1.0619469
